# .PCD v0.7 - Point Cloud Data file format
VERSION 0.7
FIELDS x y z
SIZE 4 4 4
TYPE F F F
COUNT 1 1 1
WIDTH 161
HEIGHT 1
VIEWPOINT 0 0 0 1 0 0 0
POINTS 161
DATA ascii
47.799999 82.199997 -8.1999998
47 82.599998 -8.1999998
47 83 -8.1999998
47.400002 82.599998 -8.6000004
47.400002 82.599998 -8.1999998
47.799999 81.800003 -7.8000002
47.799999 82.199997 -7.8000002
47 83 -7.8000002
47.400002 82.599998 -7.8000002
47.799999 82.599998 -7.8000002
47.400002 83 -7.8000002
47.799999 82.599998 -7.4000001
47.799999 83 -7.4000001
49 80.599998 -8.1999998
49.400002 80.599998 -8.1999998
48.599998 81 -8.1999998
48.200001 81.400002 -8.1999998
49 80.599998 -7.8000002
49.400002 80.599998 -7.8000002
48.599998 81.400002 -7.8000002
49 81 -7.8000002
49.400002 81 -7.8000002
49 81.400002 -7.8000002
49.400002 81 -7.4000001
49 81.400002 -7.4000001
49.400002 81.400002 -7.4000001
49.400002 81.400002 -7
49.799999 80.199997 -7.8000002
50.200001 80.199997 -7.8000002
49.799999 80.599998 -7.8000002
49.799999 80.599998 -7.4000001
50.200001 80.599998 -7.4000001
50.599998 80.199997 -7.8000002
50.599998 80.599998 -7.4000001
51 80.599998 -7.4000001
49.799999 81 -7.4000001
50.599998 80.599998 -7
51 80.599998 -7
50.200001 81 -7
49.799999 81.400002 -7
50.200001 81.400002 -7
50.599998 81 -7
51 81 -7
51 81.400002 -6.5999999
48.200001 81.800003 -7.8000002
48.599998 81.800003 -7.8000002
48.599998 81.800003 -7.4000001
48.200001 83 -7.4000001
48.599998 82.199997 -7
48.200001 82.599998 -7
48.200001 83 -7
50.200001 81.800003 -6.5999999
50.599998 81.800003 -6.5999999
51 81.800003 -6.5999999
46.599998 83.400002 -8.1999998
47 83.400002 -8.1999998
46.599998 83.800003 -8.1999998
46.200001 83.800003 -7.8000002
46.200001 84.199997 -7.8000002
45.799999 84.599998 -7.8000002
46.200001 84.599998 -7.8000002
46.200001 84.199997 -7.4000001
46.200001 84.599998 -7.4000001
47 83.400002 -7.8000002
46.599998 83.800003 -7.4000001
47 83.800003 -7.4000001
47.400002 83.400002 -7.4000001
46.599998 84.199997 -7.4000001
46.599998 84.599998 -7.4000001
47 83.800003 -7
47.400002 83.400002 -7
47.799999 83.400002 -7
47.400002 83.800003 -7
47 84.199997 -7
46.599998 84.599998 -7
47.400002 84.199997 -7
45.799999 85 -7.4000001
46.200001 85 -7.4000001
45.799999 85.400002 -7.4000001
45.400002 85.800003 -7.8000002
45.400002 86.199997 -7.8000002
45.799999 85.400002 -7
46.200001 85.800003 -7
46.200001 86.199997 -7
46.599998 85 -7
46.599998 85.400002 -7
47 85.400002 -6.5999999
47.400002 85 -6.5999999
47 86.599998 -6.5999999
53.400002 83 -10.6
51.400002 80.599998 -7
51.799999 80.599998 -7
51.400002 81 -7
51.799999 81 -7
51.400002 81.400002 -6.5999999
51.799999 81.400002 -6.5999999
52.200001 81 -6.5999999
52.599998 81 -6.5999999
52.200001 81.400002 -6.5999999
52.599998 81.400002 -6.5999999
53 81.400002 -7.4000001
53 81.400002 -7
51.400002 81.800003 -6.5999999
52.599998 81.800003 -7
52.599998 82.199997 -6.5999999
53 81.800003 -7.8000002
53 81.800003 -7.4000001
53 82.199997 -7.4000001
53 82.599998 -7.8000002
53.400002 82.599998 -7.8000002
53.400002 83 -7.8000002
53 81.800003 -7
53 82.599998 -7
53.400002 83.400002 -10.2
53.400002 83.800003 -9.8000002
53.799999 83.800003 -10.2
54.200001 83.800003 -10.2
53.799999 83.800003 -9.8000002
53.799999 84.199997 -9.8000002
54.200001 84.199997 -9.8000002
54.200001 84.599998 -9.8000002
54.599998 84.599998 -10.2
55 84.599998 -10.2
55 85 -10.2
55 85.400002 -10.2
54.599998 85 -9.8000002
55 85 -9.8000002
54.599998 85.400002 -9.8000002
55 85.800003 -10.2
55 85.800003 -9.8000002
55 86.199997 -9.8000002
55.400002 85.800003 -10.2
55.400002 86.199997 -10.2
55.400002 86.199997 -9.8000002
53.799999 83.400002 -8.1999998
53.799999 83.800003 -8.1999998
54.200001 83.800003 -8.1999998
54.200001 84.199997 -8.1999998
54.200001 84.599998 -8.1999998
53.400002 83.400002 -7.8000002
53.400002 83.800003 -7.8000002
53.400002 83.400002 -7.4000001
53.400002 83.800003 -7.4000001
53.799999 83.800003 -7.8000002
53.400002 84.199997 -7.4000001
53.400002 84.599998 -7.4000001
53.799999 84.199997 -7.8000002
54.200001 84.599998 -7.8000002
53.799999 84.199997 -7.4000001
53.799999 84.599998 -7.4000001
53.400002 84.599998 -7
53.799999 85 -7.4000001
53.400002 85 -7
53.799999 85 -7
54.599998 84.599998 -8.1999998
55 86.199997 -9.3999996
54.599998 85 -8.1999998
54.599998 85.400002 -8.1999998
55 85.400002 -8.1999998
54.599998 85 -7.8000002
54.599998 85.400002 -7.8000002
