# .PCD v0.7 - Point Cloud Data file format
VERSION 0.7
FIELDS x y z
SIZE 4 4 4
TYPE F F F
COUNT 1 1 1
WIDTH 129
HEIGHT 1
VIEWPOINT 0 0 0 1 0 0 0
POINTS 129
DATA ascii
9.3999996 -79.400002 5.8000002
9.8000002 -78.599998 5.8000002
9.8000002 -78.199997 5.8000002
9.8000002 -77.800003 5.8000002
9.8000002 -82.599998 7
9.8000002 -82.199997 6.5999999
9.8000002 -81.800003 6.5999999
9.8000002 -82.199997 7
9.8000002 -81.400002 6.5999999
9.8000002 -81 6.5999999
9.8000002 -81.400002 7
9.8000002 -80.599998 6.5999999
9.8000002 -80.199997 6.5999999
9.8000002 -80.599998 7
9.8000002 -80.199997 7
9.8000002 -79.800003 7
10.2 -78.199997 7
10.2 -78.199997 7.4000001
11 -76.599998 7.8000002
11.4 -76.199997 7
11.4 -76.199997 7.4000001
11.4 -76.599998 7.8000002
12.2 -76.599998 7.8000002
12.6 -76.599998 8.6000004
12.2 -73.400002 7.8000002
12.6 -73.400002 7.8000002
11 -72.599998 9
11.8 -73 8.1999998
12.6 -73.400002 8.1999998
12.2 -73 8.1999998
12.6 -73 8.1999998
12.6 -73 8.6000004
12.2 -73 9
12.6 -73 9
9.8000002 -71 9
13.8 -76.199997 7
14.2 -75.800003 7
15 -75.400002 7
14.6 -75.800003 7.4000001
15 -75.800003 7.4000001
15 -75.400002 7.4000001
15.4 -75.400002 7.4000001
15.8 -75.400002 7.4000001
15.8 -75.800003 7.8000002
15.8 -75.400002 7.8000002
15 -75 7
15.4 -75 7
15.8 -75 7
14.2 -76.199997 8.6000004
14.6 -75.800003 8.1999998
15.4 -75.800003 8.1999998
15.8 -75.800003 8.1999998
16.200001 -75.400002 7.4000001
16.6 -75.400002 7.8000002
16.200001 -75 7
16.200001 -75.800003 8.6000004
13.8 -73.400002 7.8000002
14.2 -73.400002 7.8000002
14.2 -73 7.8000002
14.6 -73.400002 7.4000001
13 -73.400002 8.1999998
13.4 -73.400002 8.1999998
13 -73 8.1999998
13 -73 8.6000004
14.2 -73 8.1999998
14.2 -72.599998 8.6000004
14.6 -72.199997 8.6000004
14.6 -72.199997 9
15.8 -71.400002 9
15.4 -71 9.3999996
18.200001 -71.800003 7.8000002
16.6 -70.599998 9
16.200001 -70.599998 9.3999996
17 -70.599998 9
18.6 -71.400002 8.1999998
18.6 -71 8.1999998
18.6 -70.599998 8.1999998
19 -70.599998 8.1999998
19 -69.800003 7.4000001
19 -70.199997 7.8000002
19 -69.800003 7.8000002
19 -69 7.8000002
19 -68.599998 7.8000002
17 -70.199997 9
17.4 -70.199997 9
17.4 -69.400002 9
18.200001 -69.800003 8.6000004
19 -70.199997 8.1999998
19 -69.800003 8.1999998
18.200001 -69.400002 8.6000004
19 -69.400002 8.1999998
19 -69 8.1999998
18.6 -69.400002 8.6000004
18.6 -69 8.6000004
17.799999 -69.800003 9
17.799999 -69.400002 9
17.799999 -69 9
19 -67.800003 8.1999998
19 -67.400002 8.1999998
18.200001 -67.400002 9
15.8 -64.199997 9
19 -65.800003 7.8000002
19 -65 7.8000002
19 -67 8.1999998
19 -66.599998 8.1999998
18.200001 -65.800003 8.6000004
19 -66.199997 8.1999998
18.200001 -67 9
18.200001 -66.599998 9
17.799999 -65.800003 9
16.6 -64.199997 9
17 -64.199997 9
18.200001 -65.400002 8.6000004
18.200001 -64.599998 8.6000004
17.799999 -64.199997 8.6000004
18.6 -64.199997 8.1999998
17.799999 -65.400002 9
19.4 -69.400002 7.8000002
19.4 -69 7.8000002
19.4 -68.599998 7.4000001
19.4 -67.800003 7.4000001
19.4 -66.599998 7.4000001
19.4 -66.599998 7.8000002
19.4 -65.800003 7.4000001
19.4 -66.199997 7.8000002
19.4 -65.800003 7.8000002
17 -63.799999 8.6000004
16.200001 -63.799999 9
16.6 -63.799999 9
