# .PCD v0.7 - Point Cloud Data file format
VERSION 0.7
FIELDS x y z
SIZE 4 4 4
TYPE F F F
COUNT 1 1 1
WIDTH 121
HEIGHT 1
VIEWPOINT 0 0 0 1 0 0 0
POINTS 121
DATA ascii
25.4 13.8 7
25 14.6 7.4000001
25 15 7.4000001
25.4 15.4 7.4000001
25 15.8 7.4000001
25.4 14.6 8.1999998
25.4 15 8.1999998
23.799999 17 6.5999999
23.799999 17.4 6.5999999
23.799999 17.4 7
24.6 16.6 7
24.200001 17 6.5999999
24.200001 17 7
24.6 17 7
24.200001 17.4 7
25 16.200001 7.4000001
23.4 17.799999 6.5999999
23.4 18.200001 6.5999999
23.799999 17.799999 7
23.4 18.200001 7
23.4 18.6 7
23.799999 18.6 7.4000001
23.799999 19 7.4000001
24.6 17.799999 8.6000004
24.6 19 8.6000004
23.4 19.4 7
23.799999 19.4 7.4000001
23.799999 19.799999 7.4000001
23.799999 20.200001 7.4000001
24.6 21.4 7.8000002
25.4 22.200001 7.8000002
24.200001 19.4 8.6000004
24.200001 19.799999 8.6000004
24.6 21.4 8.6000004
25 21 8.6000004
25 21.4 8.6000004
25 21.799999 8.1999998
32.599998 17.4 4.5999999
32.599998 17.799999 4.5999999
32.599998 18.200001 4.5999999
32.599998 18.6 4.5999999
32.599998 19 4.5999999
31.799999 20.6 4.5999999
29.4 21.799999 4.5999999
29.799999 21.799999 4.5999999
30.200001 21.799999 4.5999999
31.4 21 4.5999999
31.799999 21 4.5999999
31.4 21.4 4.5999999
30.6 21.799999 4.5999999
31.799999 20.200001 5
31.4 20.6 5
31.799999 20.6 5
29 21.799999 5
29.4 21.799999 5
31 21 5
30.6 21.4 5
31 21.4 5
31.4 21 5
31.4 21.4 5
30.6 21.799999 5
32.200001 19.799999 4.5999999
32.200001 20.200001 4.5999999
32.200001 19.799999 5
25.799999 13.4 7.4000001
25.799999 13.8 7.4000001
29.4 17.4 9
29.799999 17.799999 9
32.200001 18.200001 7
32.200001 18.6 7
32.200001 19 7
32.200001 18.200001 7.4000001
25.799999 22.200001 7.8000002
26.200001 21 8.6000004
31.799999 19.799999 6.5999999
31.4 19.799999 7
31.799999 19.799999 7
31 20.6 7
31.799999 20.200001 6.5999999
31.4 20.6 6.5999999
31.799999 20.6 6.5999999
31.4 20.200001 7
31 19.4 7.8000002
31.4 19.4 7.8000002
30.6 20.200001 7.8000002
31 20.200001 7.8000002
30.6 20.6 7.8000002
31 20.6 7.8000002
29.4 22.200001 7.8000002
30.200001 22.200001 7.4000001
30.200001 21.799999 7.8000002
30.200001 22.200001 7.8000002
31.4 21 6.5999999
31.4 21 7
30.6 21.4 7.4000001
30.6 21 7.8000002
30.6 21.4 7.8000002
30.200001 19.4 8.6000004
29.799999 19.799999 8.6000004
29.4 20.200001 8.6000004
29 20.6 8.6000004
29.4 20.6 8.6000004
30.200001 20.200001 8.1999998
30.200001 20.6 8.1999998
30.6 20.200001 8.1999998
30.6 20.6 8.1999998
29 21 8.6000004
29.4 21.4 8.6000004
30.200001 21 8.1999998
29.799999 21 8.6000004
29 21.799999 8.6000004
29.799999 22.200001 8.6000004
26.6 22.6 7.8000002
27 22.6 7.8000002
27.4 22.6 7.8000002
27.799999 22.6 7.8000002
27.4 22.6 8.6000004
28.6 22.6 8.1999998
29.799999 22.6 7.4000001
32.200001 19.4 6.5999999
32.200001 19.799999 6.5999999
