# .PCD v0.7 - Point Cloud Data file format
VERSION 0.7
FIELDS x y z
SIZE 4 4 4
TYPE F F F
COUNT 1 1 1
WIDTH 323
HEIGHT 1
VIEWPOINT 0 0 0 1 0 0 0
POINTS 323
DATA ascii
-85.400002 -78.599998 -3
-84.199997 -78.599998 -2.5999999
-83.800003 -78.199997 -2.2
-83.400002 -77.800003 -1.8
-82.199997 -78.599998 -3.4000001
-81.800003 -77 -4.1999998
-82.199997 -78.199997 -3.4000001
-81 -77 -4.1999998
-77 -77.800003 -5.4000001
-78.199997 -77 -5
-79.800003 -77 -4.1999998
-77.400002 -77.800003 -4.5999999
-82.199997 -77.800003 -2.5999999
-81.800003 -77.400002 -2.5999999
-83 -78.199997 -1.8
-82.599998 -78.199997 -1.8
-82.199997 -78.199997 -2.2
-82.199997 -77.400002 -1.8
-77.400002 -79 -2.5999999
-77 -79 -2.5999999
-77.400002 -79.400002 -2.2
-77 -79.400002 -2.2
-77 -79 -2.2
-76.199997 -78.599998 -5
-76.199997 -78.599998 -4.5999999
-76.599998 -78.599998 -3.4000001
-76.199997 -78.599998 -3.4000001
-73.800003 -79 -3.4000001
-74.199997 -78.599998 -3.4000001
-75.400002 -78.199997 -3.8
-75.800003 -78.199997 -3.4000001
-75 -78.199997 -3.8
-74.599998 -78.199997 -3.8
-74.599998 -78.199997 -3.4000001
-75.400002 -78.599998 -3
-76.599998 -79.400002 -2.2
-75.800003 -78.599998 -2.2
-74.199997 -79.400002 -3
-73.800003 -79.400002 -3
-74.199997 -79.400002 -2.5999999
-75 -78.599998 -3
-74.599998 -78.599998 -3
-75.400002 -78.199997 -3
-75 -78.199997 -3
-74.599998 -77.800003 -2.2
-75 -77 -2.2
-75 -77 -0.2
-81.800003 -76.599998 -5.4000001
-82.199997 -76.199997 -5.4000001
-81.800003 -76.199997 -5.4000001
-82.199997 -75.800003 -5
-81.400002 -76.199997 -5.4000001
-80.599998 -76.599998 -5
-80.199997 -76.599998 -5
-80.199997 -76.199997 -5
-81.400002 -75.800003 -5.4000001
-81.400002 -75.800003 -5
-81 -75.800003 -5
-81.400002 -75.400002 -5
-80.599998 -75.400002 -5.4000001
-81 -75 -5
-80.599998 -75 -5.4000001
-80.199997 -75 -5.4000001
-80.199997 -74.599998 -5.4000001
-80.599998 -75 -5
-80.199997 -75 -5
-80.599998 -74.599998 -5
-80.199997 -74.599998 -5
-80.599998 -74.199997 -5
-80.199997 -74.199997 -5
-80.199997 -73.800003 -5
-81 -76.599998 -4.5999999
-81.400002 -76.199997 -3.4000001
-81 -75.800003 -3.4000001
-80.199997 -75 -3.4000001
-79.800003 -76.599998 -5
-79.400002 -76.599998 -5
-79.800003 -76.599998 -4.5999999
-79.800003 -74.199997 -3.4000001
-79.400002 -73.400002 -5.4000001
-81.800003 -76.599998 -2.5999999
-81.800003 -76.199997 -2.5999999
-81.800003 -75.800003 -2.5999999
-81.800003 -76.199997 -2.2
-83 -75.800003 -1.8
-83 -75.400002 -1.8
-81.800003 -75.800003 -2.2
-81.400002 -75.800003 -3
-81.400002 -75.400002 -3
-81.400002 -75.800003 -2.5999999
-81.400002 -75.400002 -2.5999999
-81.800003 -75 -2.2
-81.800003 -74.599998 -1.8
-81.400002 -75 -2.5999999
-81 -75 -2.5999999
-80.599998 -75 -3
-80.599998 -74.599998 -3
-80.599998 -74.599998 -2.5999999
-80.599998 -74.199997 -3
-80.599998 -74.199997 -2.5999999
-80.599998 -73.800003 -2.5999999
-80.199997 -73.800003 -2.5999999
-81 -74.599998 -2.2
-80.199997 -74.199997 -2.2
-80.599998 -73.800003 -2.2
-80.599998 -73.800003 -1.8
-82.199997 -74.599998 -1.4
-78.599998 -75 -1.8
-79 -74.599998 -1.8
-78.599998 -74.599998 -1.8
-78.199997 -75 -1.8
-77.800003 -75 -1.8
-79.400002 -74.199997 -1.4
-79.400002 -73.800003 -1.4
-78.199997 -74.599998 -1.4
-77.800003 -74.599998 -1
-77.400002 -74.599998 -1.4
-77 -74.599998 -1.4
-78.199997 -74.199997 -1
-77.800003 -74.199997 -1
-77.400002 -74.199997 -1
-80.599998 -73.400002 -1.8
-80.199997 -73.400002 -1.4
-79 -73 -0.60000002
-79.800003 -72.599998 -0.60000002
-79.800003 -71.800003 -0.2
-78.199997 -71.800003 -0.2
-77.400002 -71.400002 -0.2
-75.400002 -71 -3.4000001
-75.800003 -70.599998 -3.4000001
-75.400002 -70.599998 -3.4000001
-74.599998 -70.599998 -4.1999998
-75 -71 -3.8
-75 -70.599998 -3.8
-74.599998 -70.599998 -3.8
-72.199997 -71.400002 -3.8
-72.199997 -71 -3.8
-72.199997 -70.599998 -3.8
-71.800003 -70.599998 -3.8
-71.800003 -70.599998 -3.4000001
-75 -76.599998 -2.2
-75 -76.599998 -1.8
-74.199997 -76.599998 -1.8
-75 -75.800003 -2.2
-75 -75.800003 -1.8
-74.599998 -75.400002 -1.8
-75 -75 -2.2
-75 -74.599998 -2.2
-74.199997 -74.599998 -1.8
-73.800003 -73.800003 -2.2
-74.199997 -74.199997 -1.8
-75 -76.599998 -0.2
-75 -75.800003 -0.2
-76.599998 -74.199997 -0.60000002
-76.599998 -73.800003 -0.2
-74.199997 -73.800003 -0.2
-73.800003 -73.800003 -0.2
-73.800003 -73.400002 -2.2
-75 -72.599998 -1.8
-75 -70.599998 -1.8
-76.199997 -73.400002 -0.60000002
-75.800003 -73.400002 -0.60000002
-75.400002 -73.400002 -0.60000002
-75 -72.599998 -1.4
-75 -72.199997 -1.4
-75.400002 -71.400002 -1
-75.400002 -70.599998 -1.4
-75.800003 -70.599998 -1
-75.800003 -71.800003 -0.60000002
-76.199997 -71 -0.60000002
-73 -73 -2.2
-71.800003 -70.599998 -3
-75.400002 -70.199997 -3.4000001
-74.599998 -70.199997 -4.1999998
-74.599998 -69.800003 -4.1999998
-74.199997 -69.800003 -4.1999998
-75 -70.199997 -3.8
-74.599998 -70.199997 -3.8
-74.599998 -69.800003 -3.4000001
-74.199997 -69.400002 -3.8
-74.199997 -69 -3.8
-73.800003 -69 -3.8
-73 -69 -3.8
-71.800003 -70.199997 -3.8
-71.800003 -69.800003 -3.8
-71.800003 -69 -3.8
-71.800003 -68.599998 -3.8
-70.599998 -68.199997 -3.4000001
-75.800003 -64.199997 -3.4000001
-74.199997 -68.599998 -1.8
-73.800003 -68.599998 -1.8
-75.800003 -70.199997 -0.60000002
-75 -69.800003 -1.4
-75 -69 -1.4
-75 -69.400002 -1
-75 -69 -1
-75 -68.599998 -1.4
-75 -68.599998 -1
-73.800003 -68.199997 -1
-73 -69 -3
-72.599998 -69 -3
-71.400002 -69.800003 -3
-71.400002 -69.400002 -3
-73 -68.599998 -1.8
-71.400002 -70.199997 -1.4
-72.599998 -68.599998 -1.4
-75.800003 -64.199997 -1.8
-75.400002 -64.199997 -1.8
-75.400002 -64.199997 -1.4
-75.400002 -64.599998 -0.2
-75.800003 -63.799999 -3.8
-75.800003 -63.400002 -3.8
-75.400002 -63.400002 -3.8
-75.800003 -63.799999 -3.4000001
-75.400002 -63.400002 -3.4000001
-75 -63 -3.8
-74.599998 -63 -3.8
-74.599998 -63 -3.4000001
-75.400002 -63.799999 -1.8
-75 -63.400002 -1.8
-74.599998 -63.400002 -1.8
-74.199997 -63.400002 -1.8
-74.599998 -63.799999 -0.2
-74.199997 -63.799999 -0.2
-75 -77 0.2
-75 -78.199997 1
-75 -78.199997 1.4
-75 -77.800003 1.4
-75 -77 1
-75 -76.599998 0.2
-75 -76.199997 0.2
-75 -75.800003 0.2
-73.800003 -76.599998 1.4
-73.800003 -76.199997 1.4
-73.800003 -75.800003 1
-73.800003 -74.599998 0.2
-74.199997 -75 0.60000002
-74.199997 -74.199997 0.2
-73.800003 -75 1
-73.400002 -75.800003 1.4
-73.400002 -74.199997 0.60000002
-73 -74.599998 1.4
-73 -76.599998 1.8
-72.599998 -73.400002 0.60000002
-71.800003 -73.400002 1.4
-71.800003 -72.199997 1.4
-72.199997 -71 1
-71.400002 -70.599998 1
-69.400002 -72.599998 1.8
-69.400002 -72.199997 2.5999999
-68.599998 -72.599998 1.8
-68.199997 -72.599998 1.8
-67.800003 -72.199997 1.8
-69.400002 -71.800003 3
-69.400002 -71.400002 3
-67.800003 -71.800003 1.8
-67.400002 -71.800003 1.8
-67.400002 -71.400002 1.8
-68.199997 -71.800003 3
-68.199997 -71.400002 3
-67.800003 -71.400002 3
-67.400002 -70.599998 2.5999999
-67.800003 -71 3
-67 -71.400002 1.8
-69.400002 -71 3.4000001
-69.400002 -70.599998 3.4000001
-69 -71 4.1999998
-68.199997 -71 3.8
-68.599998 -71.400002 4.1999998
-68.599998 -71 4.1999998
-68.599998 -71 4.5999999
-74.199997 -67.800003 0.60000002
-73.800003 -67.400002 1
-71 -69.800003 0.2
-73.400002 -68.199997 0.2
-72.599998 -68.199997 0.2
-75.400002 -66.599998 0.2
-75.400002 -66.199997 0.2
-75.400002 -65.800003 0.60000002
-75 -67 0.2
-75 -66.599998 0.2
-75 -66.599998 0.60000002
-75 -66.199997 0.60000002
-75 -66.199997 1.4
-74.599998 -66.199997 1.4
-75 -64.199997 0.2
-75 -65.400002 1.4
-74.599998 -65 1.4
-74.599998 -67 1.8
-74.199997 -67 1.8
-73.800003 -67 1.8
-73.800003 -67 2.2
-74.199997 -66.599998 2.2
-74.199997 -66.199997 2.2
-74.199997 -65 2.2
-74.199997 -64.599998 2.2
-74.199997 -65.400002 2.5999999
-73.800003 -65 2.5999999
-73.800003 -64.599998 2.5999999
-73.400002 -67 2.2
-73 -67 2.2
-73 -67 2.5999999
-73 -64.599998 2.5999999
-73.400002 -66.199997 4.1999998
-73.400002 -65.800003 4.1999998
-73 -65.400002 3.8
-69 -69 0.60000002
-69.800003 -69.400002 1
-68.599998 -69 0.60000002
-68.199997 -69 0.60000002
-67.800003 -69 0.60000002
-67.800003 -69.400002 1
-69.800003 -70.199997 2.2
-69.800003 -69.800003 2.2
-69.400002 -69.800003 2.2
-69.400002 -69.800003 2.5999999
-69.400002 -70.199997 3
-68.599998 -70.199997 3
-68.599998 -69.800003 3
-68.199997 -68.199997 3
-67.400002 -68.199997 2.5999999
-67.400002 -68.199997 3
-66.199997 -68.199997 3
