# .PCD v0.7 - Point Cloud Data file format
VERSION 0.7
FIELDS x y z
SIZE 4 4 4
TYPE F F F
COUNT 1 1 1
WIDTH 234
HEIGHT 1
VIEWPOINT 0 0 0 1 0 0 0
POINTS 234
DATA ascii
72.599998 40.599998 -2.5999999
73 40.200001 -2.5999999
73.400002 40.200001 -2.5999999
73 40.599998 -2.5999999
72.199997 41 -2.5999999
72.599998 41 -2.5999999
72.199997 41.400002 -2.5999999
73 40.200001 -2.2
73 40.599998 -2.2
73.400002 40.599998 -2.2
72.599998 41 -2.2
72.199997 41.400002 -2.2
72.599998 41.400002 -2.2
73 41 -2.2
73 41.400002 -2.2
72.599998 40.599998 -0.60000002
73 40.200001 -0.60000002
73 40.599998 -0.60000002
73.400002 40.599998 -0.2
72.599998 41 -0.60000002
72.599998 41.400002 -0.60000002
73 41 -0.60000002
73 41 -0.2
73 41.400002 -0.2
74.599998 39.799999 -2.5999999
75 39.799999 -2.5999999
74.599998 39.799999 -2.2
75 39.799999 -2.2
73.800003 40.200001 -2.5999999
73.800003 40.200001 -2.2
74.199997 40.200001 -2.2
73.800003 40.599998 -2.2
75 40.200001 -2.2
75.400002 40.200001 -2.2
75 39.400002 -0.2
71.800003 41.799999 -2.5999999
71.800003 42.200001 -2.5999999
71.800003 42.599998 -2.5999999
72.199997 41.799999 -2.5999999
72.199997 42.200001 -2.5999999
72.199997 43 -2.5999999
72.199997 41.799999 -2.2
72.599998 41.799999 -2.2
72.199997 42.599998 -2.2
72.199997 43 -2.2
71.800003 43 -0.60000002
72.199997 41.799999 -0.60000002
72.599998 41.799999 -0.2
72.199997 42.200001 -0.2
72.599998 42.200001 -0.2
73 41.799999 -0.2
72.199997 42.599998 -0.60000002
71.800003 48.200001 -0.2
72.199997 48.599998 -0.60000002
72.199997 48.200001 -0.2
73 48.599998 -0.2
73.400002 48.599998 -0.2
73.400002 49 -0.60000002
74.599998 48.599998 -2.2
74.599998 49 -1.8
74.599998 49.400002 -1.8
74.599998 50.200001 -2.2
74.599998 49.799999 -1.8
74.599998 50.599998 -2.2
74.599998 51 -2.2
73.800003 48.599998 -0.60000002
73.800003 48.599998 -0.2
74.599998 48.599998 -0.2
73.800003 49 -0.60000002
74.199997 49 -0.60000002
74.599998 49 -0.60000002
75 49 -0.60000002
74.599998 49 -0.2
75.400002 49 -0.60000002
75.400002 49 -0.2
75.800003 49 -0.2
74.599998 51.400002 -2.2
74.599998 51.799999 -2.2
74.599998 51.400002 -1.8
74.599998 52.200001 -2.2
74.599998 52.599998 -2.2
74.599998 53 -2.2
74.599998 53 -1.8
74.599998 53.400002 -1.8
75 52.200001 -1
75 52.599998 -1
73.400002 40.599998 0.2
73.400002 41 0.2
73.400002 41 0.60000002
74.599998 39 0.2
75 39 0.2
74.199997 39.400002 0.2
73.800003 39.799999 0.2
74.199997 39.400002 0.60000002
73.800003 39.799999 0.60000002
74.199997 39.799999 0.60000002
74.599998 39.400002 0.2
74.599998 39.400002 0.60000002
75 39.400002 0.60000002
74.599998 39.400002 1
75 39.400002 1
75.800003 39 0.60000002
76.199997 39 0.60000002
76.599998 39 0.60000002
75.400002 39 1
75.800003 39 1
75.800003 39.799999 1.4
73.800003 40.200001 0.60000002
73.800003 40.599998 0.60000002
73.800003 41 0.60000002
73.800003 41.400002 0.60000002
74.199997 40.200001 1
73.800003 40.599998 1
74.199997 40.599998 1
74.199997 40.200001 1.4
73.800003 41.400002 1
74.199997 41.400002 1
76.199997 40.599998 1.4
76.199997 41 1.4
76.599998 41 1.4
76.599998 39.799999 1.8
72.599998 42.200001 0.2
73 41.799999 0.2
73 42.200001 0.2
72.599998 42.599998 0.2
71.800003 44.200001 0.2
71.800003 44.599998 0.2
72.599998 43.400002 0.2
72.199997 43.799999 0.2
72.599998 43.799999 0.2
72.599998 43.400002 0.60000002
72.599998 43.799999 0.60000002
72.199997 44.200001 0.2
72.599998 44.200001 0.60000002
73.800003 41.799999 0.60000002
73.800003 41.799999 1
74.199997 41.799999 1
73.800003 42.599998 1.4
74.199997 42.599998 1.4
71 45.400002 0.60000002
71.400002 45 0.60000002
71.800003 45 0.60000002
71 45.799999 0.60000002
71 46.200001 0.60000002
71.400002 46.599998 0.60000002
71.400002 47 0.60000002
71.400002 47.400002 0.2
71.400002 47.799999 0.2
71.800003 47.799999 0.2
72.599998 47.799999 0.2
72.599998 47.400002 0.60000002
73 47.799999 0.2
73.400002 47.799999 0.2
73 47.400002 0.60000002
73 47.799999 0.60000002
73.400002 47.799999 0.60000002
73.800003 47.400002 0.60000002
74.199997 47.799999 0.60000002
74.599998 47.799999 0.60000002
72.199997 48.200001 0.2
72.599998 48.200001 0.2
73 48.200001 0.2
73.400002 48.200001 0.2
73.800003 48.200001 0.2
74.199997 48.200001 0.2
74.599998 48.599998 0.2
75 48.599998 0.2
74.599998 48.200001 0.60000002
75.400002 49 0.2
75.800003 49.400002 0.2
75.800003 48.599998 1
76.199997 50.200001 1
77 39 0.60000002
77.400002 39 0.60000002
77.800003 39 0.60000002
78.199997 39.400002 0.60000002
77 39 1
77.400002 39 1
77.400002 39.400002 1
77.800003 39.400002 1
77.800003 39.400002 1.4
78.599998 39.400002 0.60000002
79 39.799999 0.60000002
79 39.799999 1.4
79.400002 39.799999 1
77 40.599998 1.4
77 41 1.4
77.400002 41 1.4
77 41.400002 1.4
77.400002 41.400002 1.4
77.800003 41.400002 1.4
79.400002 40.200001 0.60000002
79.800003 40.200001 0.60000002
79.800003 40.599998 0.60000002
79 40.200001 1.4
79.400002 40.200001 1.4
79.400002 40.599998 1.4
79.800003 40.599998 1.4
79.400002 41 1.4
79.800003 41 1.4
79.800003 41.400002 1.4
77 39.799999 1.8
77.400002 39.799999 1.8
77.800003 39.799999 1.8
79 41.400002 1.8
80.199997 41 1.4
80.199997 41.400002 1.4
77.400002 41.799999 1.4
79.800003 43.400002 1.4
77.800003 41.799999 1.8
78.199997 41.799999 1.8
78.199997 42.599998 1.8
77.800003 43 1.8
78.599998 41.799999 1.8
79 42.200001 1.8
79.400002 41.799999 1.8
79 43.799999 1.8
79.400002 43.799999 1.8
79 44.200001 1.8
80.599998 42.200001 0.2
80.599998 42.200001 0.60000002
81 42.200001 0.2
81.400002 42.200001 0.2
81.400002 42.200001 0.60000002
81.800003 41.799999 0.2
82.199997 41.799999 0.2
81.800003 42.200001 0.60000002
83 42.200001 0.60000002
81.800003 42.599998 0.60000002
80.199997 44.200001 1.4
81 44.200001 1.4
83.400002 42.200001 0.60000002
83.400002 42.599998 0.60000002
77 51 1.8
