# .PCD v0.7 - Point Cloud Data file format
VERSION 0.7
FIELDS x y z
SIZE 4 4 4
TYPE F F F
COUNT 1 1 1
WIDTH 1036
HEIGHT 1
VIEWPOINT 0 0 0 1 0 0 0
POINTS 1036
DATA ascii
-27.799999 -90.199997 -5
-27.4 -90.199997 -5
-27.799999 -89.800003 -5
-27.4 -89.800003 -5
-27.4 -89.800003 -4.5999999
-27 -89.800003 -4.5999999
-25.799999 -86.199997 -7.8000002
-25.799999 -85.800003 -7.8000002
-26.200001 -86.199997 -7
-26.200001 -85.400002 -7
-33.799999 -86.599998 -3.8
-32.200001 -85.800003 -4.5999999
-32.200001 -85.800003 -4.1999998
-32.200001 -85.400002 -4.5999999
-33 -85.800003 -3.8
-33 -85 -3.4000001
-33 -84.599998 -3.8
-34.599998 -85.800003 -3
-34.200001 -85.400002 -3
-33.799999 -85 -2.5999999
-33.799999 -85.400002 -2.2
-32.200001 -83.400002 -1.8
-31.4 -87 -4.5999999
-31.799999 -86.599998 -4.5999999
-31.4 -87 -4.1999998
-31 -86.599998 -3.8
-31 -86.599998 -3.4000001
-30.200001 -87 -3.4000001
-27.4 -89 -5.8000002
-27.799999 -89.400002 -5
-27.4 -89.400002 -5
-27 -89 -5
-26.6 -89 -5
-26.200001 -89 -5
-25.799999 -89 -5
-27 -88.599998 -5
-26.6 -88.199997 -5
-26.200001 -88.599998 -5
-26.200001 -88.199997 -5
-25.799999 -88.199997 -5
-26.200001 -87.400002 -5.8000002
-25.799999 -87.400002 -5.8000002
-26.200001 -87 -6.1999998
-25.799999 -87 -6.1999998
-26.200001 -87.800003 -5.4000001
-25.799999 -87.800003 -5.4000001
-27 -89.400002 -4.5999999
-26.6 -89.400002 -4.5999999
-26.200001 -89.400002 -4.5999999
-25.799999 -89.400002 -4.5999999
-27.799999 -87 -4.1999998
-28.6 -87.400002 -3.8
-31.799999 -85.800003 -4.5999999
-31.4 -85.800003 -4.5999999
-31.4 -86.199997 -4.1999998
-31.4 -85.400002 -4.1999998
-31 -86.199997 -3.8
-31 -85.800003 -3.8
-31 -85.800003 -3.4000001
-31 -85.400002 -3.8
-31.799999 -84.199997 -3.4000001
-31.4 -84.199997 -3.4000001
-31 -84.199997 -3.4000001
-29.4 -83.800003 -3.8
-29 -83.800003 -3.8
-26.6 -85.400002 -5.8000002
-26.6 -85 -5.8000002
-26.6 -85 -5.4000001
-27.799999 -83.400002 -5.8000002
-26.6 -84.599998 -5.8000002
-27.4 -85.800003 -3.8
-27.799999 -85.800003 -3.4000001
-27.4 -85.800003 -3.4000001
-27.4 -85.400002 -3.8
-27.4 -85 -3.8
-27.799999 -85.400002 -3.4000001
-27.4 -85.400002 -3.4000001
-27.799999 -85 -3.4000001
-27.4 -85 -3.4000001
-27 -85.800003 -4.1999998
-27 -85.400002 -4.1999998
-27.4 -84.599998 -4.5999999
-27.4 -84.599998 -4.1999998
-28.200001 -83.800003 -4.1999998
-27.799999 -84.599998 -3.8
-27.4 -84.599998 -3.8
-27.799999 -84.199997 -3.8
-27.799999 -84.599998 -3.4000001
-28.6 -83.800003 -3.8
-29 -86.599998 -3
-30.6 -86.199997 -3
-30.6 -85.800003 -3
-30.200001 -86.199997 -2.5999999
-30.200001 -85.800003 -2.5999999
-29 -86.199997 -2.5999999
-29.4 -85.800003 -2.5999999
-30.200001 -85.400002 -2.5999999
-29.799999 -85.400002 -2.5999999
-30.200001 -85.800003 -2.2
-29.799999 -85.800003 -2.2
-29.4 -85.800003 -2.2
-29.4 -85.400002 -2.2
-29.4 -85 -2.2
-29 -85 -2.2
-30.200001 -84.199997 -3
-29.4 -84.599998 -3
-29.4 -84.199997 -3
-29.4 -84.599998 -2.5999999
-29 -84.599998 -2.5999999
-29.799999 -83.400002 -2.5999999
-30.200001 -83.400002 -1.8
-31.799999 -83.400002 -1.4
-31.799999 -83.400002 -1
-31.4 -83.400002 -1
-30.200001 -83.400002 -1.4
-28.200001 -85.800003 -2.5999999
-28.200001 -85 -3
-27.799999 -85.400002 -3
-27.799999 -85 -3
-28.200001 -85.400002 -2.2
-28.6 -85 -2.2
-28.6 -84.599998 -3
-28.200001 -84.599998 -3
-32.599998 -83 -1.8
-32.599998 -83 -1.4
-32.200001 -83 -1.4
-32.200001 -83 -1
-32.200001 -81.800003 -0.60000002
-29 -83 -3.4000001
-29 -82.199997 -3.4000001
-29 -81.800003 -3.4000001
-29 -80.199997 -4.5999999
-29 -81.400002 -3.4000001
-29 -80.599998 -3.4000001
-29.4 -80.199997 -3.4000001
-28.200001 -81.800003 -5.4000001
-28.200001 -82.199997 -5
-28.200001 -81.800003 -5
-28.6 -82.199997 -4.5999999
-28.6 -81.800003 -4.5999999
-28.6 -82.199997 -3.4000001
-28.6 -81.800003 -3.4000001
-27.799999 -80.599998 -4.5999999
-27.799999 -80.199997 -4.5999999
-27.4 -80.599998 -4.1999998
-27.799999 -80.199997 -4.1999998
-27.4 -80.599998 -3.8
-27.4 -80.199997 -3.8
-27.4 -80.199997 -3.4000001
-27 -81 -4.1999998
-30.200001 -79.800003 -3.4000001
-27.799999 -79.800003 -4.1999998
-27.799999 -79.400002 -4.1999998
-27.799999 -79.800003 -3.8
-27.799999 -79.400002 -3.8
-28.200001 -78.199997 -3.8
-29 -82.199997 -3
-29 -81.800003 -3
-29 -82.199997 -2.5999999
-29.799999 -82.599998 -1.8
-29.4 -82.599998 -1.8
-29.4 -82.199997 -1.8
-29.4 -81.800003 -1.8
-29 -81.400002 -3
-29.799999 -81 -1.8
-31.799999 -83 -0.60000002
-31.799999 -82.599998 -0.60000002
-29.799999 -82.599998 -1.4
-29.799999 -82.199997 -1.4
-29.799999 -81.800003 -1.4
-29.799999 -81.800003 -1
-29.4 -82.199997 -1.4
-30.200001 -82.599998 -0.60000002
-29.799999 -81.400002 -1.4
-30.200001 -81 -1.4
-30.200001 -81.400002 -1
-29.799999 -81.400002 -1
-27.4 -80.199997 -2.5999999
-26.200001 -81 -2.5999999
-27 -80.599998 -2.5999999
-27 -80.199997 -1.8
-26.6 -80.199997 -1
-27 -80.199997 -0.60000002
-30.200001 -79.400002 -1.8
-30.200001 -79 -1.8
-27.4 -79.400002 -2.5999999
-27.799999 -79 -2.5999999
-27.4 -79.800003 -2.2
-27.4 -79.400002 -2.2
-27.4 -79.400002 -1.8
-27.4 -79 -2.2
-27.4 -79 -1.8
-27.4 -78.599998 -1.8
-27.4 -78.199997 -1.8
-27 -79 -0.2
-27 -78.599998 -0.2
-27 -78.199997 -0.2
-27 -77.800003 -0.2
-24.200001 -87 -6.5999999
-25.4 -89 -5
-25 -88.599998 -5
-25.4 -88.199997 -5
-25 -88.199997 -5
-24.6 -88.599998 -5
-24.200001 -88.599998 -5
-24.6 -88.199997 -5
-24.200001 -88.199997 -5
-23.799999 -88.199997 -5
-25 -87.400002 -6.1999998
-25.4 -87.400002 -5.8000002
-24.6 -87.400002 -5.8000002
-24.200001 -87.400002 -5.8000002
-25.4 -87 -6.1999998
-25 -87 -6.1999998
-24.200001 -87 -6.1999998
-25.4 -87.800003 -5.4000001
-25 -87.800003 -5.4000001
-25 -87.400002 -5.4000001
-24.6 -87.800003 -5.4000001
-24.200001 -87.800003 -5.4000001
-23.799999 -87.400002 -5.8000002
-23.799999 -87 -6.1999998
-23.799999 -87.800003 -5.4000001
-25.4 -89.400002 -4.5999999
-25.4 -89 -4.5999999
-23.799999 -87.400002 -1
-23.799999 -87 -1
-23.799999 -86.599998 -1
-23.799999 -84.599998 -1.8
-23.4 -84.199997 -1.8
-23.4 -83.800003 -1.8
-22.6 -83.400002 -2.2
-23 -83.800003 -1.8
-22.6 -83.400002 -1.8
-23.799999 -86.199997 -1
-23.799999 -85.800003 -1
-23.799999 -85 -1.4
-23.799999 -86.199997 -0.60000002
-23.4 -85.800003 -0.60000002
-23.799999 -85.400002 -0.60000002
-23.4 -85.400002 -0.60000002
-23.799999 -85 -0.60000002
-23.4 -85 -0.60000002
-23.4 -84.199997 -1.4
-23.4 -84.199997 -1
-22.6 -83.400002 -1.4
-23.4 -84.599998 -0.60000002
-13 -83.400002 -1
-23 -83 -4.5999999
-22.6 -82.599998 -4.5999999
-23 -82.599998 -4.1999998
-19.799999 -81.400002 -6.1999998
-19.799999 -81.400002 -5.8000002
-19.4 -80.199997 -5.8000002
-19.799999 -81 -5.4000001
-19.799999 -80.199997 -4.1999998
-20.200001 -81.400002 -3.8
-20.200001 -80.199997 -3.4000001
-19.4 -79.800003 -6.1999998
-19.4 -79.400002 -6.1999998
-19.4 -79.800003 -5.8000002
-19.4 -78.599998 -6.1999998
-19.4 -79 -5.8000002
-19.4 -79 -5.4000001
-19.799999 -79.800003 -4.1999998
-19.799999 -79.400002 -4.1999998
-19.799999 -79.800003 -3.8
-19.799999 -79.400002 -3.8
-22.6 -82.599998 -2.5999999
-23.4 -81.800003 -2.2
-23 -81.800003 -2.2
-22.6 -81.800003 -2.2
-23 -81.800003 -1.8
-22.6 -81.800003 -1.8
-25.4 -81.400002 -2.5999999
-25 -81.400002 -2.5999999
-25.4 -81.400002 -2.2
-24.200001 -81.400002 -2.2
-25.4 -81 -0.60000002
-23.4 -81.400002 -1.4
-22.200001 -82.599998 -2.5999999
-21.799999 -82.199997 -2.5999999
-22.200001 -81.800003 -2.5999999
-21.799999 -82.599998 -2.2
-22.200001 -81.800003 -2.2
-20.6 -81.800003 -2.5999999
-19.4 -81.800003 -1.8
-20.6 -81.400002 -2.5999999
-20.200001 -80.199997 -2.5999999
-20.6 -80.599998 -2.2
-22.200001 -81.400002 -1.4
-20.200001 -79.800003 -2.2
-19 -79.400002 -6.1999998
-19 -81.400002 -2.2
-18.6 -81 -1.8
-18.6 -81.800003 -1.4
-18.200001 -82.199997 -1
-18.200001 -81.800003 -1
-17.799999 -81.800003 -1
-16.200001 -83 -1.4
-17.4 -82.199997 -1
-17 -82.199997 -1
-17 -81.800003 -1
-18.200001 -81.400002 -1.4
-18.200001 -81 -1.4
-17.799999 -81 -1.4
-17.799999 -81.400002 -1
-17.4 -81.400002 -1
-16.6 -81 -1.4
-16.200001 -81 -1.4
-14.6 -82.199997 -2.5999999
-15.4 -81.800003 -1.8
-15 -81.800003 -2.2
-14.2 -82.599998 -2.5999999
-13 -82.599998 -2.5999999
-15 -81.400002 -2.2
-13.4 -83 -1.4
-15.8 -81.400002 -1.4
-8.6000004 -84.199997 -1
-9.3999996 -83.400002 -1
-6.5999999 -83.400002 -0.2
-6.1999998 -83.800003 -1
-5.8000002 -83.400002 -1
-12.6 -82.199997 -2.5999999
-12.2 -82.599998 -2.2
-12.2 -82.199997 -2.2
-11.8 -82.199997 -2.2
-11 -83 -1
-10.2 -83 -1.4
-7.4000001 -83 -0.2
-6.5999999 -81.800003 -0.2
-7 -81.400002 -1
-4.5999999 -81.800003 -2.5999999
-3.8 -81 -2.5999999
-3.8 -81.400002 -2.2
-5.8000002 -82.199997 -1
-5.4000001 -82.199997 -1
-6.1999998 -83 -0.2
-4.5999999 -83 -1.4
-6.1999998 -81.400002 -1
-5.4000001 -81 -0.2
-3.8 -79.800003 -0.2
-3.8 -79.400002 -0.2
-3.8 -79 -0.2
-3.8 -78.599998 -0.2
-5.8000002 -77.800003 -0.2
-13 -65.800003 -2.2
-13 -65.800003 -1.8
-13 -66.199997 -1.4
-13.4 -66.599998 -0.2
-13 -66.599998 -0.2
-9.8000002 -67.400002 -0.2
-12.6 -65.800003 -2.2
-12.2 -65.800003 -2.2
-12.6 -65.800003 -1.8
-12.2 -65.800003 -1.8
-11.8 -65.800003 -2.2
-11.4 -65.800003 -2.2
-11.8 -65.800003 -1.8
-11.4 -65.800003 -1.8
-9.8000002 -66.599998 -2.2
-10.6 -66.199997 -2.2
-10.6 -66.199997 -1.8
-12.2 -65.400002 -2.2
-12.2 -66.199997 -1.4
-12.2 -65.800003 -1.4
-11.8 -66.199997 -1.4
-11.4 -66.599998 -0.2
-12.6 -66.199997 -0.2
-12.2 -66.199997 -0.2
-11.8 -66.199997 -0.2
-11 -66.599998 -0.2
-10.2 -67 -0.2
-0.60000002 -65 -1.8
-0.2 -64.599998 -1.4
-0.60000002 -64.599998 -0.2
-3.4000001 -63.400002 -0.2
-2.2 -59.799999 -1.8
-1 -59.400002 -2.5999999
-1.4 -59.400002 -1.8
-0.60000002 -59.799999 -1.8
-0.2 -59.799999 -1.8
-0.60000002 -59.400002 -1.8
-2.2 -59.799999 -1.4
-1.4 -59.799999 -1.4
-1 -59.799999 -1.4
-1.4 -59.400002 -1.4
-1.4 -59.799999 -1
-1 -59.799999 -1
-0.60000002 -59.799999 -1.4
-0.2 -59.799999 -1.4
-0.60000002 -59.400002 -1.4
-0.60000002 -60.200001 -0.2
-1.4 -59.799999 -0.2
0.2 -64.599998 -1.8
0.60000002 -64.199997 -1.4
0.60000002 -64.199997 -1
0.2 -64.199997 -0.2
1 -63.799999 -1.8
1 -63.400002 -1.8
1 -63 -1.8
1.4 -63 -1.8
1 -61.400002 -1.8
1.4 -61.400002 -1.8
1 -61 -1.8
1.4 -62.599998 -1.4
1 -62.599998 -0.2
1.4 -62.200001 -1.4
1.4 -61.799999 -1.4
1 -62.200001 -0.2
1 -61.799999 -0.2
0.60000002 -60.200001 -1.8
0.2 -59.799999 -1.8
0.60000002 -60.599998 -1.4
0.60000002 -60.200001 -1.4
0.60000002 -60.599998 -1
0.2 -60.200001 -0.2
-32.599998 -79 1
-32.200001 -79 2.2
-33 -79 3
-32.599998 -79 3
-32.200001 -79 3
-36.200001 -79 4.5999999
-35.400002 -79 5
-34.200001 -79 4.5999999
-33.799999 -79 4.5999999
-33.400002 -79 3.4000001
-33.400002 -78.599998 3.4000001
-33.400002 -79 4.5999999
-33.400002 -78.599998 4.5999999
-34.599998 -79 5
-33.400002 -78.599998 5
-33 -78.599998 5
-31.799999 -82.199997 0.2
-31.4 -82.199997 0.60000002
-31 -82.199997 0.60000002
-31 -81.800003 0.60000002
-31 -81.400002 0.2
-31.799999 -79 2.5999999
-31 -79 2.5999999
-30.6 -79 2.5999999
-30.6 -79 3
-29.799999 -79 2.2
-30.200001 -78.599998 3
-29 -78.599998 2.5999999
-26.6 -79.400002 0.2
-27 -78.599998 0.2
-25.799999 -79.800003 1
-26.6 -79 1
-26.6 -78.599998 1
-26.200001 -79 1.4
-26.200001 -78.599998 1.4
-27 -78.199997 0.2
-26.6 -78.199997 1
-28.200001 -79 2.2
-28.6 -78.599998 2.5999999
-28.6 -78.599998 3
-27.4 -78.599998 2.5999999
-27.799999 -78.599998 3
-25.799999 -79.400002 1.8
-26.200001 -79 1.8
-25.799999 -79 1.8
-26.200001 -78.599998 2.2
-27 -78.599998 2.5999999
-25.799999 -79 2.5999999
-25.799999 -78.599998 2.5999999
-28.200001 -78.199997 3
-27.799999 -78.199997 3
-27.4 -78.199997 3
-27.799999 -77.800003 3
-25.799999 -77.800003 2.2
-27 -78.199997 2.5999999
-26.6 -77.800003 3
-25.799999 -78.199997 2.5999999
-26.6 -77.400002 3
-31.799999 -79 3.4000001
-30.200001 -78.599998 3.4000001
-29.799999 -78.599998 3.4000001
-31.799999 -77.800003 5
-31.4 -77.400002 5
-28.200001 -78.199997 3.4000001
-28.200001 -77.800003 3.4000001
-27 -77.800003 3.4000001
-27 -77.400002 3.4000001
-25.799999 -77 4.1999998
-25.4 -80.599998 0.2
-25 -80.599998 0.2
-25.4 -80.199997 0.60000002
-25.4 -80.199997 1
-25 -80.199997 1.4
-24.6 -80.199997 1
-24.200001 -80.199997 1
-23.4 -80.599998 0.2
-23 -80.599998 0.2
-22.6 -80.599998 0.2
-23 -80.199997 1
-25.4 -79.800003 1
-25.4 -79.800003 1.4
-25 -79.800003 1.4
-24.6 -79.800003 1.4
-24.200001 -79.800003 1.4
-23.799999 -79.800003 1
-23.799999 -79.800003 1.4
-23.799999 -79.400002 1.4
-23.4 -79.400002 1.4
-23 -79.800003 1.4
-22.6 -79.800003 1.4
-23 -79.400002 1.4
-23.4 -78.599998 1.4
-23 -79 1
-23 -78.599998 1
-22.6 -78.599998 1
-22.6 -79 1.4
-25.4 -77 1.4
-25 -77 1.4
-24.200001 -77 1.4
-23.4 -77.800003 1
-23 -77.800003 1
-23.799999 -77 1
-23.4 -77.400002 1.4
-23.799999 -77 1.4
-25.4 -79.400002 1.8
-25.4 -79.400002 2.2
-25 -79.400002 2.2
-24.6 -79.400002 2.2
-24.200001 -79.400002 2.2
-25 -79.400002 2.5999999
-25.4 -79 2.5999999
-25 -79 2.5999999
-24.6 -79 2.5999999
-24.200001 -79 2.5999999
-24.200001 -78.599998 2.5999999
-24.6 -79 3
-24.200001 -78.599998 3
-23.799999 -79.400002 1.8
-22.6 -79.400002 2.2
-25.4 -77.800003 2.2
-24.200001 -77.800003 2.2
-25.4 -77.400002 2.2
-25.4 -78.199997 2.5999999
-25 -78.199997 3
-25 -77.800003 3
-24.200001 -78.199997 2.5999999
-24.200001 -77.800003 2.5999999
-24.6 -78.199997 3
-24.200001 -78.199997 3
-24.6 -77.800003 3
-23.4 -77 2.2
-22.200001 -79.800003 1
-21.799999 -79.800003 1
-21.799999 -79.400002 1
-22.200001 -79.800003 1.4
-22.200001 -79 1
-21.799999 -79 1
-22.200001 -78.599998 1
-22.200001 -79 1.4
-22.200001 -78.599998 1.4
-21.4 -79 1
-21 -79 1
-20.200001 -79 1
-19.799999 -79 1
-19.4 -79 1
-21.799999 -78.199997 2.5999999
-19.799999 -78.199997 2.5999999
-25 -78.599998 3.8
-24.6 -78.199997 3.4000001
-24.200001 -77 3.8
-24.6 -77 4.1999998
-23.799999 -77 3.8
-23.4 -77 4.1999998
-23.799999 -77 4.5999999
-23.4 -77 4.5999999
-18.200001 -79.400002 1
-17.799999 -79.400002 1.4
-18.6 -79 1
-19 -79 1.4
-18.6 -79 1.4
-17 -79.800003 1.4
-17.799999 -79.400002 2.2
-18.200001 -79 2.2
-17.799999 -79 2.2
-17.4 -79.400002 2.2
-17.4 -79 2.2
-18.200001 -77.800003 2.2
-18.6 -77.800003 3
-17.799999 -77.800003 2.5999999
-17.799999 -77.400002 2.5999999
-16.200001 -77.800003 1.8
-16.6 -77.800003 2.2
-17.4 -77.800003 2.5999999
-17.4 -77.400002 2.5999999
-15.8 -79.400002 1.4
-15.4 -78.199997 1.4
-14.2 -77 1.4
-15.8 -77.800003 1.8
-15.4 -77.800003 1.8
-15 -77.800003 1.8
-7.4000001 -82.599998 0.2
-7 -82.199997 0.2
-6.5999999 -82.599998 1
-12.2 -77 3.8
-11.4 -77.800003 4.1999998
-11.4 -77 4.5999999
-10.6 -78.199997 4.5999999
-9.8000002 -78.199997 5
-10.2 -77.800003 5
-10.6 -77.400002 5
-10.2 -77.400002 5
-7.8000002 -77.800003 4.1999998
-7.8000002 -77.800003 4.5999999
-7.8000002 -77.400002 4.1999998
-7.4000001 -77 4.1999998
-7.4000001 -77 4.5999999
-8.6000004 -78.199997 5
-8.1999998 -77.800003 5
-5.8000002 -80.599998 0.2
-6.1999998 -80.199997 0.2
-5 -80.199997 0.2
-4.1999998 -80.199997 0.2
-4.5999999 -80.199997 1
-3 -80.199997 1.4
-6.1999998 -79.800003 0.2
-6.1999998 -78.599998 0.2
-5.8000002 -78.599998 0.60000002
-5.4000001 -78.599998 0.60000002
-5.8000002 -79.800003 1
-5.8000002 -79.800003 1.4
-5.4000001 -79.800003 1
-5.4000001 -79.800003 1.4
-5.8000002 -78.599998 1
-5.8000002 -79 1.4
-5.4000001 -78.599998 1
-5.4000001 -79 1.4
-4.1999998 -78.599998 0.2
-3.8 -78.599998 0.2
-3.4000001 -78.599998 0.2
-3.8 -78.599998 0.60000002
-3.4000001 -78.599998 0.60000002
-4.5999999 -79.800003 1
-4.5999999 -79.800003 1.4
-4.5999999 -79.400002 1.4
-4.5999999 -78.599998 1
-4.5999999 -79 1.4
-4.5999999 -77.800003 0.2
-4.5999999 -78.199997 0.60000002
-5.8000002 -79.400002 1.8
-5.4000001 -79.800003 1.8
-5.4000001 -79.400002 1.8
-5.4000001 -79 1.8
-4.1999998 -77.800003 2.2
-3.8 -78.199997 2.2
-3.8 -77.800003 2.2
-3.4000001 -78.199997 3
-3.8 -77.800003 3
-3 -78.599998 0.60000002
-3 -79.800003 1.8
-3 -79.400002 1.8
-2.5999999 -79.400002 1.8
-2.2 -79.400002 1.8
-2.2 -79.400002 2.2
-1.8 -79.400002 2.2
-2.5999999 -79 1.8
-3 -79 2.2
-2.2 -79.400002 3
-1.8 -79.400002 3
-2.5999999 -78.599998 3
-2.2 -79 3
-1.4 -79.400002 3
-1.8 -79.400002 3.4000001
-2.5999999 -78.599998 3.4000001
-2.2 -79 3.4000001
-1.8 -79 3.4000001
-1.8 -79 3.8
-1.4 -79.400002 3.4000001
-1 -79.400002 3.8
-0.60000002 -79.400002 3.8
-1.4 -79 3.8
-0.60000002 -79 3.8
-0.2 -79 3.8
-1.4 -79 4.1999998
-1 -79 4.1999998
-0.60000002 -79 4.1999998
-0.2 -79 4.1999998
-2.2 -78.199997 4.1999998
-31 -76.199997 5
-31 -75.800003 5
-27.799999 -75.800003 4.5999999
-26.200001 -76.599998 3.8
-26.6 -76.199997 4.1999998
-26.200001 -76.599998 4.1999998
-25.799999 -76.599998 4.1999998
-26.200001 -76.199997 4.1999998
-25.4 -76.599998 1.4
-24.6 -76.599998 1.4
-24.200001 -76.599998 5.8000002
-24.6 -76.199997 5.8000002
-24.200001 -76.199997 5.8000002
-23.799999 -76.599998 5.8000002
-22.6 -76.199997 5.8000002
-24.6 -75 5.8000002
-24.6 -74.599998 5.8000002
-21.4 -76.199997 4.5999999
-21 -76.199997 4.5999999
-21.4 -76.199997 5
-21 -75.800003 5
-22.200001 -75 5.8000002
-21.4 -75 5.8000002
-20.200001 -75 5
-19.799999 -74.599998 5
-20.200001 -74.199997 5.8000002
-19.799999 -74.199997 5.8000002
-17.799999 -74.599998 3.8
-17 -74.199997 3.4000001
-17 -73.800003 3.8
-16.200001 -73.800003 3.4000001
-17 -73.800003 4.1999998
-19 -74.599998 5
-18.6 -74.599998 5
-18.200001 -74.199997 5
-13 -74.199997 3.8
-13 -73.800003 3.8
-13 -74.199997 4.1999998
-13 -73.800003 4.1999998
-16.200001 -72.199997 4.1999998
-16.200001 -71.800003 4.1999998
-17.799999 -72.199997 5.8000002
-17.4 -72.199997 5.8000002
-17.799999 -71.800003 5.8000002
-17.799999 -70.599998 5.8000002
-17.4 -71 5.8000002
-17.4 -70.599998 5.8000002
-17 -70.599998 5.8000002
-13.4 -73.400002 3.8
-13.4 -73.400002 4.1999998
-13.4 -73 4.1999998
-13.4 -70.599998 3.4000001
-13 -70.599998 3.4000001
-13.4 -71.800003 4.1999998
-13.4 -71.400002 4.1999998
-13 -71.400002 5
-13 -71 5
-13 -66.599998 0.2
-13.4 -67 1.8
-13 -67 1.8
-13.4 -70.199997 3.4000001
-13.8 -69 3.4000001
-13 -69.800003 4.1999998
-13.8 -69 4.1999998
-13 -69.400002 4.5999999
-14.6 -67.800003 4.1999998
-15 -67.400002 4.5999999
-13.8 -68.599998 3.4000001
-13.8 -68.199997 3.4000001
-13.8 -67.800003 3.4000001
-14.2 -67.400002 3.4000001
-13.4 -67.800003 3.4000001
-13 -67.800003 3.4000001
-13 -67.400002 3.4000001
-13 -68.199997 4.1999998
-13 -68.199997 4.5999999
-13 -67.800003 4.1999998
-13 -69.400002 5
-15.4 -67.800003 5
-16.200001 -65 4.5999999
-16.200001 -64.599998 4.5999999
-16.200001 -65.800003 5
-16.6 -65 5
-15.4 -66.199997 4.1999998
-15.4 -64.199997 4.1999998
-6.5999999 -76.199997 1.8
-11.8 -75.400002 5
-12.2 -73.800003 5
-7.4000001 -76.599998 4.1999998
-7.4000001 -76.199997 4.5999999
-6.5999999 -76.199997 4.1999998
-6.5999999 -75.800003 4.5999999
-7.8000002 -75 5.8000002
-11.8 -73.400002 5
-11.8 -73 5
-12.6 -72.199997 5
-12.6 -71.800003 5
-12.6 -71.400002 5
-12.2 -71 5
-12.2 -70.599998 5
-5.8000002 -76.199997 1.8
-5 -76.199997 2.5999999
-5.8000002 -75.800003 3.8
-6.1999998 -75.800003 4.1999998
-10.2 -67.400002 0.2
-10.2 -67.400002 0.60000002
-10.6 -67.400002 1.8
-12.6 -66.599998 0.2
-12.2 -66.599998 0.60000002
-11.8 -66.599998 0.2
-11.4 -66.599998 0.2
-11.8 -66.599998 0.60000002
-12.6 -66.199997 0.2
-12.2 -66.199997 0.2
-12.6 -66.599998 1.4
-10.2 -67 0.2
-12.6 -67 1.8
-12.6 -66.599998 1.8
-12.6 -67 2.2
-12.2 -67 2.2
-11.8 -67 1.8
-11.4 -67 1.8
-11.8 -66.599998 1.8
-11.8 -67 2.2
-11.4 -67 2.2
-9.3999996 -64.199997 2.2
-7.8000002 -64.599998 3
-7.8000002 -64.199997 3
-7.4000001 -64.199997 3
-7 -64.199997 3
-12.6 -69.800003 4.1999998
-11.4 -70.199997 4.5999999
-11.4 -69.800003 4.5999999
-11.4 -69 4.5999999
-11 -70.199997 4.5999999
-12.6 -67.400002 3.4000001
-11.4 -67.800003 3.8
-12.6 -68.199997 4.1999998
-11.8 -68.199997 4.1999998
-11.4 -68.199997 4.1999998
-11.4 -68.599998 4.5999999
-12.6 -67.800003 4.1999998
-12.2 -67.800003 4.1999998
-11.8 -67.800003 4.1999998
-11 -67.800003 3.8
-9.8000002 -67.800003 3.8
-9.8000002 -68.199997 4.5999999
-11.4 -70.199997 5
-12.6 -69.400002 5
-12.2 -69.400002 5.8000002
-12.6 -69 5.8000002
-12.2 -69 5.8000002
-9.3999996 -67.800003 3.8
-9.3999996 -68.199997 4.5999999
-9.3999996 -67.800003 4.1999998
-9.3999996 -67.800003 4.5999999
-9 -67.800003 4.5999999
-8.6000004 -67.400002 4.1999998
-7.8000002 -67.400002 4.1999998
-8.1999998 -67.800003 5
-7 -68.599998 5.8000002
-7.8000002 -67.800003 5.8000002
-7 -67.800003 5.8000002
-6.5999999 -67.800003 5.8000002
-7.4000001 -66.199997 3.8
-6.5999999 -65.400002 5
-0.2 -65 0.60000002
-0.2 -64.199997 0.60000002
-1 -65 1
-1.8 -64.199997 1.8
-1.4 -64.199997 1.8
-0.60000002 -65 3
-0.2 -65 3
-6.1999998 -65 4.5999999
-5.8000002 -64.599998 4.1999998
-5.4000001 -64.199997 4.1999998
-5 -64.199997 4.1999998
-4.1999998 -64.199997 3.8
-3.8 -64.199997 3.8
-3.4000001 -64.199997 3.8
-4.5999999 -64.199997 4.1999998
-5.8000002 -66.199997 5
-5.8000002 -65.800003 5
-5.8000002 -65.400002 5
-5.4000001 -65 5
-5 -65 5
-4.5999999 -65 5
-4.1999998 -65 5
-0.60000002 -66.199997 4.1999998
-0.60000002 -65.800003 4.1999998
-0.2 -65.400002 3.8
-18.200001 -63.400002 4.1999998
-17.799999 -63.400002 4.1999998
-18.200001 -63.799999 4.5999999
-17.799999 -63.799999 4.5999999
-18.200001 -63 4.1999998
-17.799999 -63 4.1999998
-18.200001 -62.599998 4.1999998
-16.200001 -63.799999 4.1999998
-16.200001 -63.400002 4.1999998
-17.4 -63 5
-17 -63 5
-17.799999 -62.200001 5
-18.200001 -61.799999 5
-17.799999 -61.400002 5
-17.4 -62.200001 5
-15.4 -63.799999 4.1999998
-15.4 -62.599998 4.5999999
-15 -62.200001 5
-9.8000002 -63 3
-9.3999996 -63.799999 2.5999999
-8.1999998 -63.799999 3
-6.5999999 -63.799999 2.2
-7.8000002 -63.799999 3
-7.4000001 -63.799999 3
-7.4000001 -63.400002 3
-7 -63.400002 3
-9 -63.400002 3.4000001
-8.6000004 -63.799999 3.4000001
-8.6000004 -63.799999 3.8
-9 -63 3.8
-3.8 -63.400002 1
-6.1999998 -63.799999 2.2
-5.8000002 -63.400002 2.2
-6.1999998 -63.400002 2.5999999
-6.1999998 -63.400002 3
-6.1999998 -63 3
-3.4000001 -62.599998 1.8
-3.8 -63.799999 3
-3.4000001 -63.799999 3
-3.4000001 -62.200001 1.8
-3.4000001 -61.799999 1.8
-3.8 -61.799999 2.2
-3.8 -61.400002 2.2
-4.1999998 -61.799999 2.5999999
-4.1999998 -61.400002 2.5999999
-4.1999998 -61 3
-3.8 -61.400002 2.5999999
-3.8 -61 3
-1 -63.799999 1.4
-2.5999999 -63.400002 1.8
-2.5999999 -63.400002 2.2
-2.2 -63.799999 1.8
-1.8 -63.799999 1.8
-2.5999999 -62.599998 2.2
-3 -63.799999 3
-2.5999999 -63.799999 3
-1.8 -63.400002 2.5999999
-2.5999999 -63 2.5999999
-2.5999999 -62.599998 3
-2.2 -63 2.5999999
-2.2 -63 3
-0.60000002 -63.799999 1.8
-0.60000002 -63.400002 1.8
-1.4 -63.400002 2.5999999
-1 -63.400002 2.5999999
-1.4 -63.400002 3
-0.60000002 -63 2.5999999
-0.2 -63 2.5999999
-0.60000002 -62.599998 2.5999999
-0.2 -62.599998 2.5999999
-3 -61.799999 1.8
-2.5999999 -61.799999 2.2
-2.5999999 -61 1.8
-3 -62.200001 2.5999999
-2.5999999 -61.799999 2.5999999
-0.2 -62.200001 2.5999999
-1.4 -61 2.5999999
-3.4000001 -60.599998 2.5999999
-3.8 -60.599998 3
-3.4000001 -60.599998 3
-3.4000001 -58.599998 3
-2.2 -60.200001 0.2
-1.8 -60.200001 0.2
-1.8 -60.200001 0.60000002
-1.4 -60.200001 0.2
-1.4 -60.200001 0.60000002
-1 -60.200001 0.60000002
-0.2 -60.599998 0.2
-0.60000002 -60.200001 0.2
-0.2 -60.599998 0.60000002
-0.60000002 -60.200001 0.60000002
-0.2 -60.200001 0.60000002
-1.4 -59.799999 0.2
-1 -59.799999 0.2
-1 -60.599998 1
-0.2 -60.599998 1
-2.5999999 -60.599998 1.8
-2.2 -60.599998 1.8
-1.8 -60.599998 1.8
-2.5999999 -60.599998 2.5999999
-2.5999999 -60.200001 2.5999999
-2.5999999 -59.799999 2.5999999
-1.4 -60.599998 1.8
-5 -63.799999 3.8
-4.5999999 -63.799999 3.4000001
-4.1999998 -63.799999 3.4000001
-4.5999999 -63.799999 3.8
-3.8 -63.799999 3.4000001
-3.4000001 -63.799999 3.4000001
-4.1999998 -61 3.4000001
-1.4 -62.599998 4.1999998
-1.8 -62.200001 4.1999998
-1.4 -62.200001 4.1999998
-1.4 -62.200001 4.5999999
-4.1999998 -59.400002 3.4000001
-4.1999998 -59.400002 3.8
-3.4000001 -59.400002 3.4000001
-4.1999998 -59 3.8
-4.1999998 -58.200001 3.8
-4.1999998 -57.799999 3.8
-4.5999999 -56.200001 1.4
-4.5999999 -57 2.5999999
-4.1999998 -57.400002 3
-5.4000001 -57.400002 4.1999998
0.2 -80.199997 2.5999999
0.60000002 -80.199997 2.5999999
1 -79.400002 2.2
1.4 -79.400002 3.4000001
0.2 -79 3.8
0.60000002 -79 3.8
1.4 -79 3.4000001
1.4 -78.599998 3.4000001
0.2 -64.199997 0.2
2.2 -66.199997 3
3 -68.199997 4.1999998
3 -68.199997 4.5999999
3.8 -67.800003 5
5.8000002 -67.800003 5.8000002
0.2 -66.199997 4.1999998
1.4 -65.800003 4.1999998
2.2 -66.599998 4.1999998
2.2 -65.800003 4.1999998
0.2 -65 3.4000001
0.60000002 -65.400002 3.8
0.60000002 -65.400002 4.1999998
1.4 -65.400002 4.1999998
5 -67 5
5.8000002 -67 5
0.2 -63.799999 0.2
0.60000002 -63.799999 0.2
0.2 -63.400002 0.60000002
0.60000002 -63.400002 0.60000002
0.60000002 -63 0.60000002
0.60000002 -62.599998 0.60000002
1 -62.200001 0.2
0.2 -61 0.2
0.60000002 -61 0.2
0.2 -61.400002 0.60000002
0.60000002 -62.200001 1
0.2 -60.599998 0.2
0.2 -60.200001 0.2
