# .PCD v0.7 - Point Cloud Data file format
VERSION 0.7
FIELDS x y z
SIZE 4 4 4
TYPE F F F
COUNT 1 1 1
WIDTH 193
HEIGHT 1
VIEWPOINT 0 0 0 1 0 0 0
POINTS 193
DATA ascii
20.6 -64.599998 11
20.6 -64.599998 11.4
21 -64.599998 11.4
21.4 -64.599998 11.4
21.4 -64.199997 11.8
21.799999 -64.199997 11.4
21.799999 -64.199997 11.8
22.200001 -64.199997 11.8
19 -63.799999 11
18.6 -63.400002 11
17.799999 -63 11
18.200001 -62.599998 11
17.4 -62.200001 11
17 -61.799999 11
17.4 -61.799999 11
17 -61 11
19 -63.799999 11.4
19 -63.400002 11.4
18.200001 -62.599998 11.4
18.6 -62.599998 11.4
19 -63 11.8
19 -62.599998 11.8
17.4 -61.799999 11.4
17.799999 -61.799999 11.4
18.6 -62.200001 11.4
19 -62.200001 11.8
18.6 -61.799999 11.8
18.200001 -61.400002 11.8
15.8 -60.599998 10.6
15.8 -60.200001 11
15.4 -59.799999 10.6
15.4 -59.400002 10.6
15.8 -59.799999 11
15.4 -59 10.6
15.4 -58.599998 10.6
15.8 -58.599998 11
15.8 -58.200001 10.6
15.8 -58.200001 11
16.200001 -60.599998 11
16.200001 -60.200001 11
16.200001 -58.200001 10.6
16.6 -57.799999 10.6
16.6 -58.200001 11
16.6 -57.799999 11
17 -57.799999 10.6
17 -57.799999 11
17.4 -57.799999 11
17.4 -60.200001 11.8
17 -59.799999 11.8
18.200001 -59.400002 11.8
16.200001 -59 11.4
16.6 -59 11.8
17 -58.599998 11.8
18.200001 -59 12.2
18.200001 -57.799999 12.6
18.6 -58.200001 12.6
19.4 -63.799999 11.4
19.799999 -63.799999 11.4
19.799999 -63.400002 11.4
19.799999 -63.400002 11.8
20.6 -63.799999 11.8
20.200001 -63 11.8
21 -63.799999 11.8
21.4 -63.799999 11.8
21 -63.400002 11.8
22.6 -63.799999 11.4
23.799999 -63.400002 12.2
24.200001 -63.400002 12.2
24.200001 -63.400002 12.6
25.4 -63.400002 12.2
19.799999 -58.599998 12.6
19.799999 -58.200001 12.6
19.799999 -57.799999 12.6
17 -57.400002 11
18.200001 -57.400002 12.6
19 -54.200001 10.6
19.4 -57.400002 12.6
19.799999 -57.400002 12.6
19.4 -57 12.6
20.6 -57 12.6
19.799999 -56.599998 12.6
19.4 -56.200001 12.6
20.6 -56.200001 12.6
19.4 -55.799999 12.6
19.799999 -55.799999 12.6
20.6 -55.400002 12.6
19.799999 -55 12.6
20.6 -55 12.6
21 -55 12.6
21.4 -55 12.6
21 -54.599998 12.6
22.200001 -55 12.2
23 -55 11.8
23.4 -55 11.8
23 -55 12.2
23.799999 -55 12.6
24.200001 -55 12.2
25.4 -54.599998 12.2
19.799999 -54.200001 11.8
22.6 -54.200001 11.8
23 -54.200001 11.8
23.799999 -63 13
25 -63 13
24.200001 -62.599998 13.8
24.6 -62.599998 13.8
25.4 -62.599998 13.8
23 -62.200001 13.8
22.200001 -56.599998 13.4
23 -56.200001 14.2
23.4 -56.200001 14.2
23.799999 -56.200001 14.2
24.200001 -56.200001 14.2
23.799999 -55.400002 13.4
23 -55.799999 13.8
23.4 -55.799999 13.8
23.799999 -55.799999 13.8
24.200001 -55.400002 13.4
24.6 -55.400002 13.4
24.200001 -55.799999 13.8
24.6 -55.799999 13.8
27 -65.800003 12.2
27.799999 -67 12.2
27.4 -66.599998 12.2
27.799999 -66.599998 12.2
28.200001 -66.599998 12.2
28.200001 -67 12.6
27.4 -66.199997 12.2
27.4 -65.800003 12.2
27.4 -65.800003 12.6
27 -65.400002 12.2
27 -65 12.2
27 -65.400002 12.6
27 -65 12.6
27 -64.599998 12.2
27 -64.599998 12.6
27 -64.199997 12.6
27.4 -65.400002 12.6
27.4 -65 12.6
27.4 -64.599998 12.6
27.4 -64.199997 12.6
27.4 -63.799999 12.6
27.4 -62.599998 12.6
31.799999 -58.200001 12.6
32.200001 -57.799999 12.2
25.799999 -54.599998 12.2
26.200001 -54.599998 12.2
26.6 -54.599998 12.2
27.4 -67.400002 14.6
27.4 -66.599998 14.2
27 -65.800003 14.6
27.4 -67 14.6
27.4 -66.599998 14.6
27.4 -66.199997 14.6
27.4 -65.800003 14.6
27.799999 -67 15.4
27.4 -66.599998 15.4
27.799999 -66.599998 15.4
27.799999 -66.599998 15.8
27.4 -66.199997 15.4
27.799999 -66.199997 15.4
27.799999 -66.199997 15.8
27.799999 -65.800003 15.8
28.200001 -66.199997 15.8
28.200001 -65.800003 15.8
27.4 -65.400002 14.6
27.4 -65 14.6
27.4 -64.599998 14.6
27.799999 -65 15.4
28.200001 -65.400002 15.8
28.200001 -65 15.8
26.200001 -62.599998 13.4
27 -62.599998 13
27.4 -62.599998 13
27.799999 -63 14.6
27.799999 -62.599998 14.6
28.200001 -61.799999 15.4
28.200001 -61.400002 15.4
28.200001 -61 15.4
27.799999 -60.200001 14.6
28.200001 -60.599998 15.4
28.200001 -60.200001 15.4
28.200001 -59.799999 15.4
28.6 -59.799999 15.4
31.799999 -58.599998 14.2
31 -58.200001 14.2
29 -59.400002 15.4
29.799999 -59.400002 15.4
29.799999 -58.599998 14.6
30.200001 -58.599998 14.6
30.200001 -58.200001 14.6
29.4 -59 15.4
29.799999 -59 15.4
31.799999 -58.599998 14.6
