# .PCD v0.7 - Point Cloud Data file format
VERSION 0.7
FIELDS x y z
SIZE 4 4 4
TYPE F F F
COUNT 1 1 1
WIDTH 236
HEIGHT 1
VIEWPOINT 0 0 0 1 0 0 0
POINTS 236
DATA ascii
-38.599998 -28.6 11.8
-38.599998 -28.200001 11.8
-38.599998 -27.4 12.2
-39 -25.799999 11.8
-38.599998 -26.200001 12.2
-39 -25.799999 12.2
-38.599998 -25.799999 12.2
-38.599998 -25.799999 12.6
-37 -29.799999 11.8
-37 -29.4 11.8
-37.400002 -29 12.2
-36.599998 -29.799999 11.8
-36.200001 -29.799999 11.8
-36.200001 -29.799999 12.2
-36.200001 -29.4 12.2
-36.599998 -29.4 12.6
-33.400002 -29 11.8
-38.200001 -28.6 12.2
-37.799999 -28.6 12.2
-38.200001 -28.200001 12.6
-37.799999 -28.200001 12.6
-37.400002 -28.6 12.6
-38.200001 -26.6 12.6
-33.799999 -28.6 12.6
-33 -28.200001 11.8
-38.599998 -26.6 13.4
-38.599998 -26.200001 13.4
-38.599998 -25.799999 13.4
-38.599998 -26.200001 13.8
-38.599998 -25.799999 13.8
-37 -29 13.4
-36.599998 -29.4 13.4
-36.599998 -29 13.4
-35.400002 -29.4 13.4
-36.599998 -29 14.2
-36.200001 -29 14.2
-35.799999 -29 14.2
-35.400002 -29 14.2
-36.200001 -29 15.4
-35.799999 -29 15.4
-35 -29.4 13.4
-34.599998 -29 14.2
-37.799999 -28.6 13.4
-38.200001 -27.4 13.4
-38.200001 -28.200001 13.8
-37.400002 -28.200001 14.2
-37.799999 -27.799999 14.2
-36.599998 -28.6 14.2
-37.799999 -27 14.2
-38.200001 -25.799999 13.8
-38.200001 -26.200001 14.2
-37.400002 -28.200001 14.6
-37 -28.200001 14.6
-37.400002 -28.200001 15.4
-37 -28.200001 15.4
-37 -28.200001 15.8
-37.799999 -27.799999 15.4
-37.799999 -27.4 15.8
-37.400002 -27.799999 15.8
-37.400002 -27.4 15.8
-36.599998 -28.6 14.6
-36.599998 -28.6 15.4
-37.799999 -27 15.4
-37.799999 -26.200001 15.4
-37.799999 -25.799999 15.4
-37.799999 -26.200001 15.8
-34.200001 -28.6 14.2
-34.200001 -28.200001 14.2
-33.799999 -28.200001 14.2
-33.799999 -27.799999 14.2
-33 -27.4 13.4
-33.400002 -28.200001 13.8
-33.400002 -27.799999 13.8
-33 -27.4 13.8
-33.400002 -27.799999 14.2
-33.400002 -27.4 14.2
-32.599998 -26.6 13.4
-33 -27 13.8
-33 -25.799999 13.8
-33.400002 -25.799999 14.2
-34.599998 -28.6 15.4
-34.599998 -28.6 15.8
-34.200001 -28.6 15.4
-34.200001 -28.200001 15.4
-34.200001 -28.6 15.8
-34.200001 -28.200001 15.8
-34.200001 -27.799999 15.8
-33.400002 -27.4 15.4
-33.400002 -26.200001 14.6
-33.400002 -25.799999 14.6
-33.400002 -26.6 15.4
-33 -26.6 15.4
-33.400002 -26.200001 15.4
-33.400002 -25.799999 15.4
-37.400002 -27.799999 16.200001
-37 -27.799999 16.200001
-37 -27.4 16.6
-37 -27.799999 17.4
-36.200001 -28.6 16.200001
-36.599998 -28.200001 16.200001
-35.799999 -28.6 16.200001
-36.200001 -28.200001 17.4
-35.799999 -28.200001 17.4
-35.400002 -28.200001 17.4
-37.400002 -27 16.6
-37.400002 -26.200001 16.6
-37.400002 -25.799999 16.6
-37.400002 -27 17.4
-37.400002 -26.6 17.4
-37.400002 -26.200001 17.4
-37 -27.4 17.799999
-36.200001 -28.200001 17.799999
-35.799999 -28.200001 17.799999
-35.400002 -28.200001 17.799999
-36.599998 -27.799999 17.799999
-36.200001 -27.799999 17.799999
-36.599998 -27.4 17.799999
-35.400002 -27.799999 17.799999
-35.799999 -27.4 19
-35.400002 -27.4 19
-37 -26.6 17.799999
-37 -25.799999 17.799999
-36.599998 -25.799999 17.799999
-36.200001 -27 19
-36.200001 -26.6 19
-35.799999 -27 19
-35.400002 -27 19
-35.799999 -26.200001 19
-35.400002 -26.200001 19
-35.400002 -25.799999 19
-35 -28.200001 16.6
-34.200001 -27.4 16.200001
-35 -28.200001 17.4
-35 -27.799999 17.4
-34.599998 -27.799999 17.4
-33.799999 -27 16.200001
-33.799999 -26.6 16.200001
-33.799999 -27 16.6
-33.799999 -25.799999 16.200001
-34.200001 -26.6 17.4
-33.799999 -26.6 17.4
-34.599998 -25.799999 17.4
-34.200001 -25.799999 17.4
-33.400002 -26.6 16.200001
-35 -27.799999 17.799999
-35 -27.4 17.799999
-34.599998 -27.4 17.799999
-34.200001 -26.6 17.799999
-35 -25.799999 17.799999
-34.599998 -25.799999 17.799999
-35 -27 19
-35 -26.6 19
-35 -26.200001 19
-36.200001 -26.6 19.4
-35.799999 -27 19.4
-35.400002 -27 19.4
-35.400002 -26.6 19.4
-35.799999 -26.6 19.799999
-35.400002 -26.6 19.799999
-35.400002 -26.200001 19.4
-35.400002 -26.200001 19.799999
-35 -26.6 19.4
-38.599998 -25.4 11.8
-38.599998 -25 11.8
-38.599998 -25.4 12.6
-38.200001 -25 12.2
-38.200001 -24.6 12.2
-37.799999 -24.6 12.6
-37.799999 -24.200001 12.6
-37.400002 -24.200001 12.6
-35.799999 -23.4 12.6
-33.799999 -24.200001 12.6
-33 -25.4 12.6
-33 -24.6 12.6
-35 -23.799999 12.6
-34.599998 -23.799999 12.6
-35 -23.4 12.6
-31.799999 -25 12.6
-31.799999 -24.6 12.6
-31.4 -23.4 12.6
-37.400002 -24.200001 13.4
-38.200001 -25.4 13.8
-38.200001 -25 13.8
-37.400002 -24.6 13.8
-36.599998 -23.799999 13.4
-35.799999 -23.799999 13.8
-35.400002 -23.799999 13.8
-35.400002 -23.4 13.8
-37.799999 -25.4 15.4
-37.799999 -25.4 15.8
-37.400002 -25 15.4
-37.400002 -25 15.8
-37 -24.6 15.8
-36.200001 -24.200001 15.4
-36.599998 -24.6 15.8
-36.200001 -24.6 15.8
-35.400002 -24.200001 15.4
-34.200001 -24.200001 13.4
-33.799999 -25 14.2
-33.400002 -24.6 13.4
-33 -25 13.8
-33.400002 -25.4 14.2
-33.400002 -25 14.2
-35 -23.799999 13.8
-33.799999 -25.4 15.4
-37 -25 16.200001
-37 -25.4 16.6
-37 -25 16.6
-37 -25.4 17.4
-36.200001 -25 16.200001
-36.200001 -24.6 16.200001
-35.400002 -24.6 16.200001
-36.599998 -25.4 17.4
-36.200001 -25.4 17.4
-36.599998 -25 17.4
-36.200001 -25 17.4
-35.799999 -25 17.4
-36.599998 -25.4 17.799999
-36.200001 -25.4 17.799999
-35.799999 -25.4 17.799999
-35.400002 -25.4 17.799999
-35.400002 -25 17.799999
-35 -25 16.6
-34.200001 -25.4 16.200001
-34.200001 -25 16.200001
-34.599998 -25.4 17.4
-35 -25 17.4
-34.200001 -25.4 17.4
-34.599998 -25.4 17.799999
-31.4 -23.4 13
-30.200001 -23 13.4
-30.200001 -22.6 13.4
-29 -22.6 13.8
-29 -22.200001 13.8
-29.4 -21.799999 13.8
-29 -21.799999 13.8
