# .PCD v0.7 - Point Cloud Data file format
VERSION 0.7
FIELDS x y z
SIZE 4 4 4
TYPE F F F
COUNT 1 1 1
WIDTH 808
HEIGHT 1
VIEWPOINT 0 0 0 1 0 0 0
POINTS 808
DATA ascii
-42.599998 -10.6 11.4
-42.200001 -11 11.8
-41.799999 -11 11.8
-43 -9.8000002 11.8
-42.599998 -10.6 12.2
-41.799999 -11 12.2
-42.200001 -10.6 12.6
-42.599998 -10.2 12.2
-42.599998 -9.8000002 12.2
-42.599998 -9.8000002 12.6
-41 -11.8 11.4
-41 -11.8 11.8
-41 -11.4 11.8
-40.599998 -11.8 11.8
-40.599998 -11.8 12.2
-43.400002 -8.1999998 11.4
-43.400002 -8.1999998 12.2
-43 -9.3999996 12.2
-43 -9 12.2
-42.599998 -9.3999996 12.6
-43 -8.6000004 12.2
-43.400002 -7.8000002 11.8
-43 -7.4000001 11.4
-43 -7.8000002 11.8
-43 -7.4000001 11.8
-42.599998 -6.5999999 11.4
-43 -7.8000002 12.2
-42.599998 -7.4000001 12.6
-42.599998 -6.1999998 11.4
-41.799999 -5.4000001 11.4
-42.200001 -6.1999998 12.2
-42.200001 -6.1999998 12.6
-41.799999 -6.1999998 12.6
-41.400002 -5.4000001 11.8
-41 -5.4000001 11.8
-40.200001 -5.4000001 11.4
-40.599998 -5 11.4
-40.200001 -5 11.4
-40.599998 -5.4000001 11.8
-40.200001 -5.8000002 12.2
-40.200001 -5.4000001 12.2
-39 -5.4000001 11.8
-39.400002 -5.8000002 12.2
-39.799999 -5.8000002 12.6
-38.200001 -5.8000002 12.2
-37 -4.5999999 12.2
-37.799999 -3.4000001 12.2
-37.799999 -3 12.2
-37.799999 -2.5999999 12.2
-37.799999 -2.2 12.2
-37.799999 -2.2 12.6
-37.400002 -1.8 12.6
-37.400002 -1.4 12.2
-37.400002 -1 12.6
-37.400002 -0.60000002 12.2
-37 -0.2 12.6
-36.599998 -0.2 12.6
-39 -13.8 13.8
-39 -13 14.6
-37.799999 -14.6 13.8
-37.400002 -15 13.8
-37.400002 -14.6 13.8
-37 -15 14.2
-37.400002 -14.6 14.2
-37 -14.6 14.2
-36.599998 -15 14.2
-35.799999 -15 13.8
-35.799999 -14.6 13.8
-36.200001 -14.6 15.8
-36.599998 -14.2 15.8
-35.400002 -14.2 15.8
-34.200001 -14.6 14.2
-33.799999 -13.8 14.6
-35 -14.2 15.8
-34.599998 -14.2 15.8
-34.200001 -13.8 15.4
-33.400002 -13.8 14.6
-33 -13.4 15.4
-37.799999 -13.8 16.200001
-37 -14.2 16.200001
-38.200001 -13 17.4
-36.599998 -14.2 16.200001
-35.799999 -14.2 16.200001
-36.200001 -14.2 17.4
-37 -13.8 17.799999
-37.799999 -13.4 17.799999
-37.400002 -13.4 18.200001
-37.400002 -13 19
-37 -13 19
-36.599998 -13.8 17.799999
-36.599998 -13.4 19
-35.799999 -13.4 19
-35.400002 -13.4 19
-35 -14.2 16.200001
-34.599998 -13.4 17.4
-32.200001 -13 16.200001
-33.400002 -13 17.4
-35 -13 19
-37.400002 -13 19.4
-37 -13 19.4
-37 -13 19.799999
-36.599998 -13.4 19.4
-36.200001 -13.4 19.4
-36.599998 -13 19.4
-36.200001 -13 19.799999
-35.799999 -13.4 19.4
-35.400002 -13 19.4
-35.799999 -13 19.799999
-35.400002 -13 19.799999
-42.200001 -10.6 13.4
-42.599998 -9.8000002 13.4
-42.200001 -10.2 13.4
-41.799999 -10.6 13.8
-41.799999 -10.6 14.2
-42.200001 -10.2 13.8
-42.200001 -9.8000002 13.8
-42.200001 -10.2 14.2
-41.799999 -10.2 15.4
-42.200001 -9.8000002 15.4
-41.799999 -9.8000002 15.4
-41.799999 -10.2 15.8
-40.599998 -11.4 13.4
-40.200001 -11.4 13.4
-40.200001 -11.4 13.8
-39.799999 -11.4 13.4
-39.400002 -11.4 14.2
-41.400002 -11 13.4
-41 -11 13.4
-39 -12.2 15.8
-41 -10.6 15.4
-40.200001 -11 15.4
-40.599998 -10.6 15.4
-40.599998 -10.6 15.8
-41.400002 -10.2 15.4
-41.400002 -10.2 15.8
-39.799999 -11 15.4
-39.799999 -10.6 15.8
-39.400002 -10.6 15.8
-42.599998 -9.3999996 13.4
-43 -9 13.4
-42.599998 -9 13.4
-43 -8.1999998 13.4
-42.599998 -9.3999996 13.8
-42.599998 -9 13.8
-43 -8.6000004 13.8
-42.599998 -8.6000004 13.8
-43 -8.1999998 13.8
-42.599998 -8.6000004 14.2
-42.599998 -7.4000001 13.4
-42.599998 -7.8000002 13.8
-42.200001 -7.8000002 13.8
-42.200001 -7 13.8
-42.200001 -9 15.4
-42.200001 -9 15.8
-42.200001 -8.6000004 15.4
-42.200001 -7.8000002 15.8
-38.599998 -7 15.8
-38.599998 -12.6 16.200001
-38.599998 -12.2 16.200001
-38.599998 -11.8 16.200001
-39 -11.4 16.200001
-38.599998 -11.4 16.200001
-38.599998 -12.6 17.4
-38.599998 -12.2 17.4
-40.200001 -10.6 16.200001
-41.400002 -10.2 16.200001
-41 -10.2 16.200001
-40.599998 -10.2 16.200001
-40.200001 -10.2 16.200001
-40.599998 -10.2 16.6
-40.599998 -10.2 17.4
-38.599998 -11 16.200001
-39.799999 -10.2 16.200001
-39.400002 -10.2 16.200001
-39.799999 -10.2 16.6
-38.599998 -11 17.4
-38.599998 -11.4 17.799999
-41 -9.8000002 17.799999
-40.599998 -9.8000002 17.799999
-42.200001 -8.6000004 16.200001
-41.799999 -9 17.4
-39 -9.3999996 17.4
-39 -9 17.4
-38.599998 -8.6000004 17.4
-39 -8.1999998 17.4
-38.599998 -8.1999998 17.4
-41 -7.4000001 17.4
-40.599998 -7 17.4
-39 -7.8000002 17.4
-39.400002 -7 17.4
-41.400002 -9.3999996 17.799999
-41 -9.3999996 17.799999
-41.400002 -9 17.799999
-40.599998 -9.3999996 17.799999
-41.400002 -8.6000004 17.799999
-41.400002 -8.1999998 17.799999
-41 -8.1999998 17.799999
-40.200001 -9 19
-40.200001 -8.1999998 19
-39.799999 -9.3999996 17.799999
-39 -9.3999996 17.799999
-39 -8.1999998 17.799999
-39.799999 -8.6000004 19
-39.400002 -8.1999998 19
-39.400002 -7.4000001 17.799999
-41.400002 -6.1999998 13.4
-41.400002 -5.8000002 13.4
-40.599998 -5.8000002 13.4
-40.200001 -5.8000002 13.4
-40.200001 -5.4000001 13.4
-41.400002 -6.1999998 13.8
-41 -6.1999998 13.8
-41 -5.8000002 13.8
-40.200001 -5.8000002 13.8
-40.200001 -6.1999998 14.2
-40.599998 -5.8000002 14.2
-40.200001 -5.8000002 14.2
-39 -6.1999998 13.4
-39 -5.8000002 13.4
-39.400002 -6.1999998 13.8
-39.799999 -5.8000002 13.8
-39 -6.1999998 14.2
-38.599998 -6.1999998 14.2
-40.200001 -6.1999998 15.4
-39.799999 -6.1999998 15.4
-40.200001 -9 19.4
-40.200001 -8.6000004 19.4
-40.200001 -8.1999998 19.4
-40.200001 -8.6000004 19.799999
-39.799999 -8.6000004 19.4
-39.799999 -8.1999998 19.4
-39.799999 -8.6000004 19.799999
-37 -8.6000004 14.2
-37 -7.8000002 13.4
-37.799999 -7.4000001 13.8
-37.799999 -7.4000001 14.2
-37.400002 -7.8000002 14.2
-37.799999 -8.6000004 15.4
-36.200001 -8.1999998 14.6
-36.599998 -9 15.4
-35.799999 -7.8000002 14.6
-35.799999 -7.4000001 14.6
-35 -7.4000001 14.6
-34.599998 -7.4000001 14.6
-34.599998 -7.8000002 15.4
-33.799999 -7.4000001 15.4
-32.599998 -7.4000001 14.6
-32.599998 -7.8000002 15.4
-37.799999 -10.2 17.4
-38.200001 -12.6 17.799999
-38.200001 -12.2 17.799999
-38.200001 -12.2 18.200001
-38.200001 -11.8 17.799999
-38.200001 -11.4 17.799999
-38.200001 -11.8 18.200001
-37.799999 -12.6 19
-37.799999 -12.2 19
-37.400002 -12.6 19
-37.799999 -11.8 19
-38.200001 -11 17.799999
-38.200001 -10.6 17.799999
-38.200001 -11 18.200001
-37.400002 -10.6 19
-37 -10.2 19
-36.599998 -9.8000002 19
-36.200001 -9.8000002 19
-35.799999 -9.8000002 19
-34.599998 -12.6 19
-33.799999 -12.6 19
-33.400002 -12.6 19
-37 -9 16.200001
-38.200001 -8.6000004 16.6
-36.200001 -9 16.6
-38.200001 -7.8000002 16.200001
-35.400002 -7.8000002 16.6
-37 -9.3999996 17.799999
-35.400002 -9 19
-34.200001 -8.1999998 17.4
-34.200001 -7.8000002 16.6
-33.400002 -7.4000001 16.200001
-33.400002 -7.4000001 16.6
-33.400002 -8.1999998 19
-31 -11.4 15.4
-30.6 -10.6 15.4
-31.4 -8.6000004 15.4
-27.799999 -7.4000001 15.4
-27.799999 -7 15.4
-31.799999 -12.6 16.200001
-31.4 -10.6 17.4
-31.799999 -10.6 19
-31.799999 -10.2 19
-31.4 -9 16.200001
-31.799999 -8.6000004 16.200001
-26.200001 -9.3999996 16.6
-26.200001 -9 16.6
-26.6 -8.6000004 16.6
-25.799999 -9 17.4
-27.4 -7.8000002 16.6
-27.4 -7.4000001 16.6
-27.4 -7 16.6
-27 -6.5999999 17.4
-26.6 -6.5999999 19
-36.200001 -4.5999999 14.2
-36.200001 -4.5999999 14.6
-35.799999 -4.5999999 14.6
-34.200001 -5.8000002 13.8
-34.200001 -5.8000002 14.2
-33.799999 -6.1999998 14.6
-34.200001 -5.8000002 14.6
-37.400002 -3 13
-37.400002 -1.8 13
-37.400002 -2.2 13.4
-37.400002 -1.8 13.4
-37 -0.60000002 13
-37.400002 -2.5999999 14.6
-37 -1.8 14.6
-37 -2.2 15.8
-37 -1 14.6
-36.599998 -0.2 14.6
-36.200001 -0.2 14.6
-36.200001 -0.60000002 15.4
-35.400002 -0.2 15.4
-35.799999 -0.60000002 15.8
-35.400002 -0.2 15.8
-35 -0.2 15.4
-34.200001 -0.2 15.8
-33.799999 -0.2 15.8
-32.599998 -0.60000002 15.8
-32.200001 -0.60000002 15.8
-36.200001 -4.1999998 16.200001
-35.400002 -4.5999999 16.200001
-36.599998 -3.8 16.200001
-36.200001 -3.8 16.6
-36.599998 -3.4000001 16.6
-33 -5.8000002 16.200001
-33 -5.8000002 16.6
-32.200001 -5.8000002 16.200001
-33.400002 -5.4000001 17.4
-35 -4.5999999 16.6
-32.599998 -5 19
-34.200001 -3.4000001 19
-36.599998 -3 16.6
-36.599998 -2.2 16.6
-36.599998 -1.8 16.6
-35.400002 -0.60000002 16.6
-36.200001 -2.5999999 17.799999
-36.200001 -2.2 17.799999
-36.200001 -1.8 17.799999
-35.799999 -1.8 17.799999
-35.400002 -2.2 19
-35.400002 -1.8 19
-35.799999 -1.4 17.799999
-35.400002 -1.4 17.799999
-35.400002 -1 17.799999
-35 -0.60000002 16.6
-35 -0.60000002 17.4
-33.400002 -0.60000002 16.6
-33 -0.60000002 16.6
-32.200001 -1 17.4
-34.200001 -3 19
-35 -1.8 19
-34.599998 -1.8 19
-33.799999 -2.2 19
-33.400002 -2.2 19
-35 -1 17.799999
-34.599998 -1 17.799999
-35 -0.60000002 17.799999
-34.599998 -0.60000002 17.799999
-34.200001 -0.60000002 17.799999
-33.400002 -1.4 17.799999
-32.599998 -1.4 17.799999
-32.599998 -1 17.799999
-32.200001 -1 17.799999
-29.799999 -6.1999998 15.4
-31.799999 -0.60000002 14.6
-31.799999 -0.60000002 15.8
-31.4 -0.60000002 15.8
-30.6 -5.8000002 16.6
-31 -5.4000001 17.4
-29.799999 -6.1999998 16.200001
-29.799999 -6.1999998 16.6
-30.200001 -5.8000002 16.6
-31.799999 -5.8000002 17.799999
-30.6 -5 19
-29.799999 -5.4000001 19
-28.200001 -5 17.4
-27.4 -3.4000001 16.6
-26.6 -4.5999999 16.6
-25.799999 -4.1999998 16.6
-26.6 -4.5999999 17.4
-30.6 -0.60000002 16.6
-31.799999 -1 17.4
-31.4 -1 17.4
-31 -1 17.4
-30.200001 -0.60000002 16.6
-29.4 -0.60000002 16.6
-29.799999 -1 17.4
-29.4 -1 17.4
-31.799999 -1.4 17.799999
-31.799999 -1 17.799999
-31.4 -1 17.799999
-31 -1 17.799999
-26.6 -2.2 16.6
-27 -1.8 16.6
-28.6 -1.4 17.4
-26.6 -0.60000002 16.6
-26.6 -0.2 16.6
-26.200001 -1.4 17.4
-28.6 -1.8 19
-26.200001 -1.8 19
-25.799999 -0.60000002 19
-37.400002 -12.6 19.799999
-37 -12.6 19.799999
-37.799999 -11.4 19.4
-37.400002 -11.8 19.4
-37.400002 -11.8 19.799999
-37.400002 -11.4 19.799999
-37 -12.6 20.200001
-37.400002 -12.2 20.200001
-37 -12.2 20.6
-37 -11.8 20.200001
-37 -11.8 20.6
-35.400002 -12.6 19.799999
-36.200001 -12.6 20.6
-35.799999 -12.6 20.200001
-35.400002 -12.6 20.200001
-35.799999 -12.2 20.6
-35.400002 -12.2 20.6
-35.400002 -11.8 20.200001
-37.799999 -11 19.4
-37.400002 -11 19.4
-37.400002 -10.6 19.4
-37 -10.6 19.4
-37 -11 19.799999
-37 -10.2 19.4
-37 -11 20.200001
-36.599998 -10.2 19.4
-36.200001 -10.2 19.4
-36.599998 -10.2 19.799999
-36.200001 -10.2 19.799999
-35.799999 -10.2 19.4
-36.599998 -11 20.6
-35.799999 -11 20.200001
-35.799999 -10.6 20.200001
-35.400002 -10.6 20.200001
-35.799999 -11 20.6
-35.400002 -10.6 20.6
-36.200001 -11.8 21.4
-36.599998 -11.4 21.4
-35.799999 -11.8 21.4
-35.799999 -11.4 21.4
-36.200001 -11.8 21.799999
-36.599998 -11.4 21.799999
-36.200001 -11.4 21.799999
-35 -12.6 19.4
-34.599998 -12.6 19.4
-35 -12.6 19.799999
-35 -12.2 19.799999
-34.599998 -12.2 19.799999
-34.200001 -12.2 19.799999
-35 -11.8 19.799999
-34.599998 -11.8 19.799999
-34.200001 -12.2 20.200001
-35 -11.8 20.200001
-34.599998 -11.4 20.200001
-34.599998 -11.8 20.6
-35 -11.4 20.6
-33.799999 -11.8 20.200001
-34.200001 -11.4 20.6
-33.400002 -12.2 19.799999
-33 -11.8 19.799999
-32.599998 -11.8 19.799999
-33.400002 -11.8 20.200001
-33 -11.4 20.200001
-33 -11.4 20.6
-32.599998 -11.8 20.200001
-32.200001 -11.4 20.200001
-35 -9.8000002 20.6
-32.200001 -11 19.799999
-32.599998 -11 20.200001
-32.200001 -11 20.200001
-32.599998 -11 20.6
-32.599998 -10.6 20.6
-32.200001 -10.2 20.200001
-32.599998 -9.8000002 20.200001
-33.400002 -11.4 21.4
-34.599998 -11 21.4
-35 -10.6 21.4
-34.599998 -10.6 21.4
-35 -10.2 21.4
-34.599998 -10.2 21.4
-34.599998 -9.8000002 21.4
-34.200001 -9.8000002 21.4
-33.799999 -9.8000002 21.4
-34.200001 -11 21.799999
-33.799999 -11 21.799999
-34.200001 -11 22.200001
-33.799999 -11 22.200001
-34.200001 -10.6 22.200001
-33.799999 -10.6 22.200001
-34.200001 -9.8000002 21.799999
-34.200001 -10.2 22.200001
-33.799999 -10.2 22.200001
-33.799999 -9.8000002 22.200001
-33 -11 21.4
-33 -10.6 21.4
-33.400002 -9.8000002 21.4
-33.400002 -10.6 21.799999
-33.400002 -10.2 21.799999
-33 -10.2 21.799999
-33.400002 -9.8000002 21.799999
-33.400002 -10.2 22.200001
-33.799999 -8.6000004 19.4
-33.799999 -8.6000004 19.799999
-34.599998 -9.3999996 20.6
-34.599998 -9 20.6
-34.200001 -9 20.6
-32.200001 -9.3999996 19.799999
-33.400002 -8.6000004 19.799999
-32.599998 -9.3999996 20.200001
-33.400002 -8.6000004 20.200001
-34.200001 -9.3999996 21.4
-33.799999 -10.6 22.6
-34.200001 -10.2 22.6
-33.799999 -10.2 22.6
-31.799999 -10.2 19.4
-31.799999 -10.2 19.799999
-25.799999 -8.1999998 19.4
-26.200001 -7.4000001 19.799999
-26.200001 -7.4000001 20.200001
-25.799999 -7.4000001 20.200001
-26.6 -7 20.200001
-26.200001 -7 20.200001
-26.200001 -6.5999999 20.200001
-26.200001 -7 20.6
-25.799999 -7 20.6
-25.799999 -6.5999999 20.6
-25.799999 -7 21.4
-33 -5 19.4
-32.200001 -5 19.4
-32.599998 -5 19.799999
-33.799999 -4.1999998 19.4
-33.400002 -3.4000001 19.4
-32.200001 -4.5999999 20.6
-33 -3.4000001 20.200001
-33 -3.8 20.6
-32.599998 -3.8 21.4
-32.200001 -3.4000001 21.799999
-32.200001 -3.4000001 22.200001
-35.400002 -2.5999999 19.4
-34.200001 -2.5999999 19.4
-35 -2.2 19.4
-34.200001 -2.2 19.4
-33.799999 -2.2 19.4
-34.200001 -2.5999999 20.200001
-35 -2.2 20.200001
-34.599998 -2.2 20.200001
-34.599998 -2.2 20.6
-33.400002 -3 19.799999
-33.400002 -2.5999999 19.799999
-33 -2.5999999 19.799999
-33 -2.2 19.799999
-32.200001 -2.5999999 20.200001
-32.200001 -2.5999999 20.6
-32.599998 -3 21.4
-32.200001 -3 21.4
-32.200001 -3 21.799999
-31.4 -5 19.4
-30.6 -5 19.799999
-30.200001 -5 19.799999
-29.799999 -5 19.799999
-31.799999 -4.5999999 20.200001
-31.799999 -4.1999998 20.6
-31.4 -4.1999998 20.6
-30.6 -4.1999998 20.200001
-31 -4.1999998 20.6
-30.200001 -4.5999999 20.200001
-29.799999 -4.5999999 20.200001
-29.799999 -4.5999999 20.6
-29.799999 -4.1999998 20.6
-31.799999 -3.8 21.4
-31.799999 -3.4000001 21.4
-31.4 -3.4000001 21.4
-30.6 -3.8 21.4
-31 -3.4000001 21.4
-31.799999 -3.4000001 21.799999
-30.6 -3.8 21.799999
-30.6 -3.4000001 21.799999
-30.200001 -3.8 21.4
-30.200001 -3.8 21.799999
-29.799999 -3.8 21.799999
-30.200001 -3.4000001 21.799999
-29.799999 -3.4000001 21.799999
-30.200001 -3.8 22.200001
-30.200001 -3.4000001 22.200001
-29.799999 -3.4000001 22.200001
-26.200001 -5.8000002 19.4
-26.200001 -5.4000001 19.4
-25.799999 -5 19.4
-26.200001 -6.1999998 20.200001
-26.200001 -5.8000002 20.200001
-26.200001 -6.1999998 20.6
-25.799999 -6.1999998 20.6
-25.799999 -5.8000002 20.6
-25.799999 -5.4000001 20.6
-28.6 -4.5999999 19.799999
-28.6 -4.1999998 19.799999
-28.6 -3.8 19.799999
-28.200001 -3.4000001 19.799999
-31.4 -1.8 19.799999
-31.4 -2.5999999 20.200001
-31.4 -3 20.6
-31.799999 -2.5999999 20.6
-31 -2.5999999 20.200001
-31 -2.5999999 20.6
-29.4 -1.8 19.4
-29 -1.8 19.4
-29 -2.5999999 20.200001
-30.200001 -1.8 20.200001
-29.799999 -2.2 20.6
-29.4 -2.2 20.200001
-31 -1.4 19.799999
-29.4 -1.4 19.799999
-31.799999 -3 21.4
-31 -3 21.4
-30.6 -2.5999999 21.4
-30.6 -3 21.799999
-30.200001 -2.5999999 21.4
-29.4 -3 21.4
-29.4 -2.5999999 21.4
-29.799999 -3 21.799999
-30.200001 -3 22.200001
-29.799999 -3 22.200001
-29.4 -3 21.799999
-28.6 -2.5999999 19.4
-28.6 -3 19.799999
-28.6 -3 20.6
-25.799999 -1.8 19.4
-25.799999 -1.8 20.200001
-25.799999 -1.4 20.200001
-30.200001 -3.4000001 22.6
-29.799999 -3.4000001 22.6
-25.4 -9 17.4
-25 -9 17.4
-24.6 -9 17.4
-22.6 -8.1999998 17.4
-24.200001 -8.6000004 19
-23.4 -8.1999998 19
-25.4 -4.1999998 16.6
-23.799999 -4.1999998 16.6
-23 -5 18.200001
-23 -5 19
-25.4 -4.5999999 19
-25 -4.5999999 19
-25 -4.1999998 19
-24.6 -4.5999999 19
-24.200001 -4.5999999 19
-24.6 -3.4000001 19
-23.4 -4.5999999 19
-23.4 -3.4000001 19
-21.4 -1.8 18.200001
-22.200001 -2.5999999 19
-21.799999 -1.8 19
-21.4 -1.4 18.200001
-21.799999 -1 19
-22.200001 -0.2 19
-25.4 -8.1999998 19.799999
-24.6 -8.1999998 19.4
-24.200001 -8.1999998 19.4
-25.4 -8.1999998 20.200001
-25 -8.1999998 20.200001
-24.200001 -8.1999998 20.200001
-24.200001 -8.1999998 20.6
-23.799999 -8.1999998 19.4
-23.799999 -8.1999998 20.200001
-25 -7.8000002 20.6
-24.200001 -7.8000002 20.6
-23 -7.8000002 19.4
-23 -7.4000001 19.4
-23 -7 19.4
-22.6 -7 19.4
-22.6 -6.5999999 19.4
-23.799999 -7.8000002 20.200001
-23.4 -7.8000002 20.200001
-23 -7.4000001 20.200001
-23.4 -7 20.6
-23 -7 20.200001
-23 -6.5999999 20.200001
-23 -6.5999999 20.6
-25.4 -7.4000001 21.4
-25 -7.4000001 21.4
-25.4 -7 21.4
-24.6 -7.4000001 21.799999
-24.200001 -7.4000001 21.799999
-25.4 -7 21.799999
-25 -7 22.200001
-24.200001 -7 21.799999
-23.799999 -7 21.4
-23.799999 -6.5999999 21.4
-23.799999 -7 21.799999
-23.799999 -6.5999999 21.799999
-24.6 -7 22.6
-25.4 -5 19.4
-24.200001 -5 19.4
-25 -5 20.200001
-25.4 -5.4000001 20.6
-24.6 -5 20.6
-24.200001 -5 20.6
-23 -5.4000001 19.4
-23.4 -5.8000002 20.6
-23 -6.1999998 20.200001
-23 -5.8000002 20.200001
-23 -6.1999998 20.6
-23.799999 -5 20.200001
-23.799999 -5.4000001 20.6
-24.200001 -5.8000002 21.4
-25 -5.4000001 21.4
-25 -6.1999998 21.799999
-25 -5.8000002 21.799999
-25 -6.1999998 22.200001
-24.200001 -6.1999998 21.799999
-24.6 -5.8000002 21.799999
-24.6 -6.1999998 22.200001
-24.6 -5.8000002 22.200001
-23.799999 -6.1999998 21.4
-23.799999 -5.8000002 21.4
-23.799999 -6.1999998 21.799999
-24.6 -3 19.4
-25 -2.5999999 20.6
-24.6 -2.5999999 20.6
-24.200001 -2.5999999 20.6
-25.4 -2.2 20.200001
-25.4 -1.8 20.200001
-25 -2.2 20.6
-25.4 -1.8 20.6
-23.799999 -3 19.4
-23.4 -3 19.4
-23 -3 19.4
-23.799999 -3 20.200001
-23.4 -3 20.6
-23.4 -2.5999999 20.6
-22.6 -2.5999999 20.200001
-23 -2.5999999 20.6
-23.4 -2.2 20.6
-22.6 -2.2 20.200001
-23 -2.2 20.6
-22.6 -2.2 20.6
-25.4 -1.4 20.200001
-25.4 -1.4 20.6
-25 -1 20.6
-25.4 -0.2 20.200001
-25.4 -0.60000002 20.6
-24.200001 -0.2 20.6
-22.6 -1.4 20.6
-22.6 -1 20.6
-22.6 -0.60000002 20.200001
-22.6 -0.2 20.200001
-23 -0.60000002 20.6
-23.799999 -1.8 21.799999
-24.6 -1 21.4
-24.6 -0.2 21.4
-24.6 -1.4 21.799999
-24.200001 -1 21.799999
-24.200001 -1.4 22.200001
-23.4 -1 21.4
-23 -1.4 21.4
-23.799999 -0.2 21.4
-23.4 -1.4 21.799999
-23.4 -1 21.799999
-23.4 -1.4 22.200001
-23.799999 -0.60000002 21.799999
-22.200001 -1.8 19.4
-22.200001 -2.2 20.200001
-22.200001 -1 19.4
-22.200001 -0.60000002 19.4
-22.200001 -1.4 20.200001
-22.200001 -1.4 20.6
-22.200001 -0.60000002 20.200001
-24.200001 -1.4 22.6
-23.799999 -1.4 22.6
-37 0.2 12.6
-35.799999 0.60000002 12.6
-35 0.60000002 12.6
-33.799999 0.60000002 12.2
-35 1 12.6
-33.400002 0.60000002 12.2
-33.400002 0.60000002 12.6
-35.799999 0.2 14.6
-34.200001 0.60000002 13.4
-35 0.60000002 14.2
-35 0.2 14.6
-34.200001 0.2 15.8
-23 0.60000002 17.799999
-23.4 0.60000002 19
-23 0.60000002 19
-25.4 0.2 19.4
-25 0.2 19.4
-24.6 0.2 19.4
-25.4 0.2 20.200001
-25 0.2 20.200001
-24.200001 0.2 20.200001
-23 0.2 19.4
-22.6 0.2 19.4
-23 0.2 19.799999
-23.4 0.2 20.200001
-23.4 0.2 20.6
-23 0.2 20.200001
-22.6 0.2 20.200001
