# .PCD v0.7 - Point Cloud Data file format
VERSION 0.7
FIELDS x y z
SIZE 4 4 4
TYPE F F F
COUNT 1 1 1
WIDTH 222
HEIGHT 1
VIEWPOINT 0 0 0 1 0 0 0
POINTS 222
DATA ascii
49.799999 60.200001 -14.2
50.599998 60.599998 -13.8
51 60.599998 -13.8
51 60.599998 -13.4
49.400002 57.400002 -12.2
49.400002 57 -11.4
50.599998 58.599998 -11.8
51.799999 60.200001 -13
52.200001 60.200001 -13
52.200001 60.599998 -13
52.599998 62.200001 -15
53 62.200001 -15
53.400002 62.200001 -15
52.200001 61 -13.8
52.599998 61.400002 -13.8
53 61.799999 -14.2
53 61.799999 -13.8
53.400002 62.200001 -13.8
53 61.400002 -13.4
53 61.400002 -13
53 61.799999 -13.4
53.400002 61.799999 -13.4
53.400002 62.200001 -13.4
53.400002 61.799999 -13
53.799999 62.200001 -13.4
53.799999 62.200001 -13
54.200001 62.200001 -13
53.799999 62.599998 -13.4
54.200001 62.599998 -13.4
54.200001 62.599998 -13
54.599998 62.200001 -13
54.599998 62.599998 -13.4
54.599998 63 -13.4
55 63 -13.4
54.599998 62.599998 -13
55 62.599998 -13
55 63 -13
55.400002 63 -13.4
55.400002 62.599998 -13
55.400002 63 -13
55.799999 63 -13
55.400002 63.400002 -13.4
55.799999 63.400002 -13.4
55.799999 63.400002 -13
56.200001 63 -13
56.599998 63 -13
56.200001 63.400002 -13.4
56.599998 63.400002 -13.4
56.599998 63.799999 -13.4
56.200001 63.400002 -13
56.599998 63.400002 -13
57 63.799999 -13.4
57.400002 63.799999 -13.4
57 63.400002 -13
57.400002 63.400002 -13
57 63.799999 -13
57.400002 63.799999 -13
63.799999 59.799999 -14.6
63.400002 60.200001 -14.6
63.799999 60.200001 -14.6
63.799999 59 -13
63.799999 59.400002 -14.2
63.799999 59.799999 -14.2
63.799999 59.400002 -13.8
63.799999 59.799999 -13.8
63.799999 60.200001 -14.2
63.400002 60.599998 -14.2
63.400002 60.200001 -13.8
63.799999 60.200001 -13.8
63.400002 60.599998 -13.8
63.799999 59.400002 -13.4
63.799999 59.799999 -13.4
63.799999 59.400002 -13
63.400002 59.799999 -13
63.799999 59.799999 -13
63.400002 60.200001 -13.4
63.400002 60.599998 -13.4
63.400002 60.200001 -13
63.400002 60.599998 -13
57.799999 63.400002 -13
57.799999 63.799999 -13
58.200001 63.799999 -13
59 63.400002 -13
58.599998 63.799999 -13
59 63.799999 -13
60.599998 63 -13.4
60.599998 63 -13
59.400002 63.400002 -13
59.799999 63.400002 -13
59.400002 63.799999 -13
60.200001 63.400002 -13.4
60.599998 63.400002 -13.4
60.200001 63.799999 -13.4
60.200001 63.400002 -13
60.599998 63.400002 -13
62.200001 62.200001 -13.4
62.200001 62.200001 -13
63 61.400002 -14.2
63 61 -13.8
63 61.799999 -14.2
62.599998 61.799999 -13.8
62.599998 62.200001 -13.8
63 61 -13.4
62.599998 61.400002 -13.4
63 61.400002 -13.4
62.599998 61 -13
63 61 -13
62.599998 61.400002 -13
62.599998 61.799999 -13.4
62.599998 62.200001 -13.4
62.599998 61.799999 -13
62.200001 62.599998 -13.8
62.200001 63 -13.8
61.400002 62.599998 -13.4
61 63 -13.4
61.400002 63 -13.4
61 63 -13
61.799999 62.599998 -13.4
62.200001 62.599998 -13.4
61.799999 63 -13.4
61.799999 62.599998 -13
61 63.400002 -13.4
61.400002 63.400002 -13.4
64.599998 58.599998 -14.6
64.199997 59 -14.6
65.400002 58.599998 -14.6
64.199997 59.400002 -15
64.199997 59.400002 -14.6
65.800003 59.400002 -14.6
65.800003 59.799999 -14.6
65.800003 60.200001 -15
66.199997 60.599998 -14.6
64.599998 58.200001 -13.8
65.400002 57.799999 -14.2
64.199997 59 -14.2
64.199997 59 -13.8
64.599998 57.799999 -13
64.199997 58.599998 -13
64.199997 59 -13
64.199997 59.400002 -14.2
64.199997 59.400002 -13.8
66.599998 60.200001 -13.8
66.599998 59.400002 -13.4
65.800003 61 -15.4
66.199997 61.799999 -15.4
66.599998 61.799999 -15
67 62.599998 -15
67 61 -13.8
67 61.799999 -14.2
67.400002 63.400002 -15
68.199997 62.200001 -13.4
57.799999 64.199997 -13.4
58.200001 64.199997 -13.4
57.799999 64.199997 -13
58.200001 64.199997 -13
59 64.599998 -13.4
58.599998 64.199997 -13
59 64.199997 -13
59.400002 64.199997 -13.4
59.799999 64.199997 -13.4
67.800003 66.199997 -16.200001
68.199997 68.199997 -16.200001
68.599998 70.199997 -16.6
68.599998 69.800003 -16.200001
67.800003 65.400002 -15.8
67.800003 64.199997 -15
68.199997 64.599998 -14.6
68.199997 65 -15
68.599998 65.400002 -14.6
68.199997 65.800003 -15.4
68.199997 66.199997 -15.4
68.199997 66.599998 -15.8
68.599998 66.599998 -15
68.599998 64.599998 -14.2
68.599998 65 -14.2
69 65 -13.8
68.599998 67.800003 -15.4
69 67.400002 -14.6
69 67.800003 -14.6
68.599998 69.400002 -15.8
69 70.199997 -15.8
69 69.800003 -15.4
69 69 -15
69.400002 70.199997 -15
69 71.400002 -16.6
69 71.800003 -16.6
69.400002 70.599998 -15.4
69.400002 71.400002 -15.8
63.799999 57.400002 -11.4
51.799999 59.799999 -12.2
52.200001 60.200001 -12.6
52.200001 60.599998 -12.6
52.599998 61 -12.6
54.599998 62.200001 -12.6
55 62.599998 -12.6
55.400002 62.599998 -12.6
59.799999 60.200001 -11
60.200001 60.200001 -11
60.599998 60.200001 -11
63.799999 58.599998 -12.6
63.799999 59 -12.6
63.799999 58.599998 -12.2
63.400002 59.799999 -12.6
59 61.799999 -11.8
59.400002 61 -11.4
59.799999 61 -11.4
60.200001 61 -11.4
59.400002 61.799999 -11.8
59.799999 61.799999 -11.8
58.599998 63.400002 -12.6
59 63.400002 -12.6
59.400002 63.400002 -12.6
66.199997 53.799999 -11.4
65.800003 54.200001 -11.4
67 52.599998 -10.6
65 55.799999 -12.2
65.400002 55.799999 -12.2
65.400002 54.599998 -11.4
65.400002 55 -11.4
65 55.799999 -11.8
65 56.200001 -12.2
64.599998 57.799999 -12.6
