# .PCD v0.7 - Point Cloud Data file format
VERSION 0.7
FIELDS x y z
SIZE 4 4 4
TYPE F F F
COUNT 1 1 1
WIDTH 2244
HEIGHT 1
VIEWPOINT 0 0 0 1 0 0 0
POINTS 2244
DATA ascii
-32.200001 21.799999 16.200001
-32.200001 21.799999 16.6
-33 22.200001 17.4
-32.599998 21.799999 17.4
-32.599998 22.200001 17.4
-33.400002 22.6 16.200001
-33.400002 22.6 16.6
-32.200001 22.6 16.200001
-32.200001 22.6 16.6
-32.599998 23 16.6
-32.200001 23.4 16.200001
-33 22.6 17.4
-32.599998 22.6 17.4
-32.599998 24.200001 16.6
-32.200001 25 16.6
-32.200001 25.4 16.6
-32.200001 24.200001 17.4
-32.599998 24.6 17.4
-32.200001 24.6 17.4
-30.6 20.200001 15.4
-29.799999 19.4 15.4
-31.799999 21.799999 15.8
-31.799999 22.200001 15.8
-30.200001 23.4 14.2
-29 23.4 14.2
-30.200001 24.6 14.2
-30.200001 25.4 14.2
-31 23.4 15.4
-30.200001 23 15.4
-30.6 25.4 14.6
-31.4 25.4 15.4
-31.799999 25.4 15.8
-31.4 25.4 15.8
-26.6 23.4 13.4
-26.200001 23.4 13.4
-25.799999 23.4 13.4
-27.4 23 14.6
-26.6 23 14.6
-29.4 19.799999 16.200001
-30.200001 20.6 16.200001
-29 20.6 16.6
-29.799999 20.6 17.4
-29.4 20.6 17.4
-29 20.6 17.4
-30.6 21 16.200001
-31 21.4 16.200001
-29.4 22.200001 16.6
-30.200001 21 17.4
-30.200001 21.4 17.4
-29 21.4 17.4
-29.799999 22.200001 17.4
-29 21.799999 17.4
-29.4 22.200001 17.4
-29.799999 21 17.799999
-30.200001 21.4 17.799999
-29.799999 21.4 17.799999
-29.4 21 17.799999
-29 21.4 17.799999
-29.4 21 18.200001
-29 21.799999 17.799999
-28.200001 19.799999 16.200001
-28.200001 20.6 16.200001
-27.799999 20.200001 17.4
-27.4 20.200001 17.4
-27.4 20.6 17.4
-26.200001 19.4 16.200001
-26.200001 20.6 17.4
-28.200001 21 16.6
-28.6 21.799999 16.6
-28.6 22.200001 16.6
-28.6 21.4 17.4
-27.799999 21 17.4
-27.4 21.4 17.4
-27 22.200001 16.6
-26.200001 22.200001 16.6
-25.799999 21 17.4
-26.200001 21.4 17.4
-27 21.799999 17.4
-27.4 20.6 17.799999
-27 20.200001 17.799999
-26.6 20.200001 17.799999
-27 20.6 17.799999
-26.6 20.6 18.200001
-26.200001 20.6 18.200001
-27.4 21.4 17.799999
-27.4 21 18.200001
-27 21 18.200001
-26.200001 21 18.200001
-31.799999 23.799999 16.200001
-29.799999 22.6 16.6
-29 23 16.200001
-29.4 22.6 16.6
-29 22.6 16.6
-31.4 24.200001 16.200001
-31 25 16.200001
-31.799999 24.6 17.4
-24.200001 19 12.2
-24.200001 19 12.6
-23.4 19 11.8
-22.6 18.6 11.8
-22.6 19 11.8
-23.4 19 12.6
-23 19 12.2
-22.200001 19 11.8
-22.200001 19 12.2
-25.4 24.6 11.8
-25 25 11.8
-23.799999 25.4 11.8
-23.4 25 12.6
-22.6 25 12.6
-21 25 12.6
-19.799999 6.1999998 17.799999
-16.6 1.4 15.4
-16.200001 1.4 15.4
-16.6 1.4 15.8
-16.200001 1.4 15.8
-15.4 1.4 15.4
-15 1.4 15.4
-15 1.4 15.8
-13 0.60000002 15.4
-13.4 1 15.8
-16.200001 1.8 17.4
-18.200001 3 19
-16.6 2.2 19
-16.200001 2.2 19
-17.4 2.5999999 19
-14.6 1.4 16.200001
-13.4 1.4 17.4
-15.4 2.2 19
-13 1.8 18.200001
-13.4 1.8 19
-13.4 2.2 19
-18.6 3.8 19
-18.200001 3.4000001 19
-18.6 4.1999998 19
-18.6 4.5999999 19
-19 5 19
-19 5.4000001 19
-14.6 6.1999998 19
-14.2 6.1999998 19
-19.4 8.6000004 17.4
-19.799999 6.5999999 17.799999
-19.799999 7 17.799999
-19.799999 7.4000001 17.799999
-19.799999 7.8000002 17.799999
-19.799999 6.5999999 19
-19.799999 7.8000002 19
-14.6 8.1999998 15.4
-15 8.6000004 15.8
-18.200001 9.8000002 15.8
-16.6 9.8000002 15.4
-16.200001 9.8000002 15.4
-16.200001 11.4 14.6
-16.6 11.8 14.6
-15.8 11 14.6
-15.4 10.6 15.4
-17.4 9.3999996 17.4
-17 9.3999996 17.4
-18.6 8.6000004 19
-18.200001 9 19
-17.799999 9 19
-15.4 7.8000002 19
-15 7.4000001 19
-15.8 9 17.799999
-15 11 17.4
-13.8 10.6 17.4
-13 11 18.200001
-15 11.4 18.200001
-15.8 12.6 17.799999
-14.6 11.4 19
-15 11.8 19
-15.8 12.6 19
-15.4 12.6 19
-16.200001 2.2 19.4
-17.4 2.5999999 19.4
-17 2.5999999 19.4
-16.6 2.5999999 19.799999
-16.200001 2.5999999 19.799999
-17 2.5999999 20.200001
-17.4 3 20.200001
-17 2.5999999 20.6
-16.6 2.5999999 20.200001
-16.6 2.5999999 20.6
-15 2.2 19.4
-15 2.5999999 19.799999
-14.6 2.5999999 19.799999
-15.8 2.5999999 20.200001
-15.4 2.5999999 20.6
-13 1.8 19.4
-13 2.2 19.4
-13 2.2 19.799999
-14.2 2.5999999 19.799999
-13.8 3 20.200001
-18.6 4.1999998 19.4
-18.200001 3.8 20.200001
-18.200001 4.1999998 20.6
-18.200001 4.5999999 20.6
-18.6 5 19.4
-19 5.8000002 19.799999
-17.799999 5 20.6
-17.799999 5.4000001 20.6
-19 5.8000002 20.6
-19 6.1999998 20.6
-17.4 3.4000001 21.4
-17.4 3.8 21.4
-17.4 4.1999998 21.4
-17.4 4.5999999 21.4
-17 3.8 21.799999
-16.6 3.8 21.799999
-16.6 3.8 22.200001
-16.200001 3.8 22.200001
-17.4 4.1999998 21.799999
-17 4.5999999 21.799999
-17 4.5999999 22.200001
-16.200001 4.1999998 22.200001
-18.200001 6.1999998 22.200001
-17.799999 6.1999998 22.200001
-17 5.4000001 21.4
-16.200001 6.1999998 21.4
-17 5 21.799999
-16.6 5 21.799999
-16.6 5 22.200001
-16.200001 5 22.200001
-17 6.1999998 22.200001
-16.6 6.1999998 22.200001
-13.8 3.4000001 20.6
-13.4 4.5999999 20.6
-14.6 6.1999998 19.799999
-15.4 6.1999998 20.6
-14.6 5.8000002 20.6
-15 6.1999998 20.6
-14.6 6.1999998 20.6
-13.8 5.4000001 20.6
-13.4 5.4000001 20.200001
-13.4 5 20.6
-13 5.4000001 20.6
-13.8 5.8000002 20.200001
-15.4 3.4000001 21.4
-15 3.4000001 21.4
-15.4 3.4000001 21.799999
-15.4 3.8 21.799999
-14.6 3.4000001 21.799999
-15 3.8 22.200001
-15.8 4.1999998 21.799999
-15.8 4.5999999 21.799999
-15.8 4.1999998 22.200001
-15.8 4.5999999 22.200001
-15.4 4.5999999 22.200001
-14.6 4.5999999 22.200001
-13.8 3.8 21.4
-13.4 3.4000001 21.4
-13 3.4000001 21.4
-13.4 3.8 21.4
-14.2 4.1999998 21.4
-13.8 4.1999998 21.4
-13.4 4.1999998 21.4
-13 4.1999998 21.4
-13 3.4000001 21.799999
-15.8 5 21.4
-15.8 5.4000001 21.4
-15 5.4000001 21.4
-14.6 5.4000001 21.4
-15.4 5.4000001 21.799999
-14.2 5.4000001 21.4
-16.6 4.5999999 22.6
-16.6 4.5999999 23
-16.200001 4.5999999 23
-16.200001 5 22.6
-17 6.1999998 22.6
-15.4 4.5999999 22.6
-19.4 7 19.799999
-19 7.8000002 20.6
-16.200001 7.8000002 20.6
-17.799999 8.6000004 19.799999
-17.799999 8.6000004 20.200001
-17.799999 8.6000004 20.6
-16.6 8.6000004 19.799999
-17 8.6000004 20.6
-16.6 8.1999998 20.200001
-16.6 8.6000004 20.6
-18.6 7.4000001 21.4
-18.200001 7.8000002 21.4
-18.200001 6.5999999 21.799999
-18.200001 7 21.799999
-18.200001 6.5999999 22.200001
-17.799999 6.5999999 22.200001
-18.200001 7 22.200001
-17.799999 7 22.200001
-17.799999 7.8000002 21.799999
-17.799999 7.4000001 22.200001
-16.200001 7 21.4
-17 7.8000002 21.4
-17 7 22.200001
-16.6 6.5999999 22.200001
-17.4 7.8000002 21.799999
-17 7.8000002 21.799999
-17.4 7.8000002 22.200001
-16.6 7.8000002 21.799999
-17.799999 8.1999998 21.4
-15.8 6.5999999 20.6
-15.8 8.1999998 19.799999
-14.6 11.8 19.799999
-14.6 12.2 19.799999
-14.6 11.8 20.200001
-15 12.2 20.6
-15 12.6 20.6
-13.8 11.8 20.6
-13.8 12.2 21.4
-14.2 12.6 21.4
-14.2 12.6 21.799999
-13.8 12.6 21.799999
-13.8 12.6 22.200001
-13.4 12.6 22.200001
-13 12.6 22.200001
-17.799999 7 22.6
-17.799999 6.5999999 23
-17.799999 7 23
-17.4 6.5999999 22.6
-17 7 22.6
-17.4 6.5999999 23
-17 6.5999999 23
-17.4 7 23
-17.4 7.4000001 22.6
-17 7.4000001 22.6
-17.4 6.5999999 23.4
-12.6 0.60000002 15.4
-12.2 0.60000002 15.8
-12.2 1 15.8
-11.8 1 15.8
-10.6 1.4 15.8
-10.2 1.4 15.4
-9.8000002 1.4 15.4
-9.8000002 1.8 15.4
-9.3999996 2.2 15.4
-11.8 1 16.200001
-10.2 2.2 17.4
-9.8000002 3 17.4
-11.8 1.4 17.799999
-11.4 1.8 19
-10.2 2.2 17.799999
-9.8000002 3 17.799999
-10.2 2.5999999 18.200001
-11 1.8 19
-9.8000002 5 17.4
-9.8000002 5.4000001 17.4
-9.8000002 5.8000002 17.4
-9.8000002 3.8 17.799999
-9.8000002 4.5999999 17.799999
-9.8000002 4.1999998 18.200001
-9.8000002 3.4000001 19
-10.2 4.5999999 19
-9.8000002 4.5999999 19
-11.4 6.1999998 18.200001
-12.6 6.1999998 19
-12.2 6.1999998 19
-11.4 5.8000002 19
-11.4 6.1999998 19
-9.8000002 5 17.799999
-10.6 5.8000002 18.200001
-10.6 5.8000002 19
-9.3999996 3.8 17.799999
-12.2 7 16.200001
-12.6 6.5999999 17.4
-11.4 6.5999999 17.4
-12.2 6.5999999 17.799999
-12.2 6.5999999 19
-6.5999999 7.4000001 17.799999
-7 7.8000002 17.799999
-8.1999998 9 17.799999
-8.1999998 9.3999996 17.799999
-7.4000001 8.1999998 17.799999
-10.6 10.6 16.6
-10.2 11 16.6
-11.4 11.4 16.6
-11 11.4 16.6
-10.6 12.2 16.6
-10.6 12.6 16.6
-11 12.2 17.4
-11 12.6 17.4
-12.2 11.4 19
-11.8 12.2 19
-11.4 12.2 19
-8.1999998 10.2 17.799999
-8.1999998 10.2 18.200001
-8.1999998 11 17.799999
-8.1999998 11 18.200001
-8.1999998 11.4 17.799999
-6.1999998 7.4000001 17.799999
-5.8000002 7.4000001 17.799999
-5.4000001 7.4000001 18.200001
-5 7.4000001 18.200001
-4.1999998 7.4000001 18.200001
-3.8 7.4000001 18.200001
-2.5999999 8.1999998 18.200001
-1.8 9.3999996 18.200001
-1.8 9.8000002 18.200001
-1.8 10.6 18.200001
-1.8 11.4 18.200001
-12.6 2.2 19.799999
-11.8 1.8 19.4
-11.8 2.2 19.4
-11.4 2.2 19.4
-11.8 2.2 19.799999
-12.6 2.2 20.200001
-12.2 2.2 20.200001
-10.6 2.2 19.4
-10.2 2.5999999 19.4
-10.6 3 20.6
-11.8 3 21.4
-12.2 2.5999999 21.799999
-12.6 3 21.799999
-10.2 3.8 19.4
-9.8000002 3.8 19.4
-10.2 4.1999998 19.4
-9.8000002 4.1999998 19.4
-10.6 4.5999999 20.200001
-12.6 5.8000002 19.799999
-11.4 5.8000002 19.4
-11.8 6.1999998 19.4
-11.4 5.8000002 19.799999
-12.6 5.4000001 20.6
-11.4 5.4000001 20.200001
-11 5.8000002 19.4
-10.6 5.8000002 19.4
-12.6 3.4000001 22.200001
-12.6 3.8 22.200001
-11.4 3.4000001 22.200001
-11.4 3.8 22.200001
-11.8 4.5999999 22.200001
-11.4 4.5999999 22.200001
-11 4.5999999 21.4
-11 3.8 22.200001
-12.2 5 21.4
-11.4 5 21.4
-12.2 5 21.799999
-12.2 3.4000001 22.6
-12.2 3.8 23
-11.8 3.8 23
-12.2 4.5999999 22.6
-11.8 4.1999998 22.6
-11.4 4.1999998 22.6
-7 8.6000004 20.200001
-7.4000001 9 20.200001
-7 9 20.6
-7 9.3999996 20.6
-6.5999999 9 21.799999
-12.2 11.8 19.799999
-12.2 12.2 19.799999
-11.8 12.2 19.4
-12.6 11.8 20.6
-12.2 12.6 20.6
-7.4000001 10.6 19.799999
-7.4000001 11 19.799999
-7.4000001 10.2 20.200001
-7.4000001 10.6 20.200001
-7.4000001 11 20.200001
-8.1999998 12.6 20.200001
-7.4000001 11.4 19.799999
-7.4000001 11.8 19.799999
-7 10.6 21.4
-6.5999999 11 22.200001
-6.5999999 11.8 22.200001
-7 12.6 21.799999
-6.5999999 10.2 22.6
-6.5999999 9.8000002 23.4
-6.1999998 7.8000002 19.4
-5.8000002 7.8000002 19.799999
-5 7.8000002 19.4
-5 7.8000002 19.799999
-5.4000001 7.8000002 20.200001
-4.5999999 7.4000001 19.4
-4.1999998 7.4000001 19.4
-4.1999998 7.4000001 19.799999
-4.1999998 7.8000002 19.799999
-3.8 7.8000002 19.4
-3.4000001 7.8000002 19.4
-4.5999999 7.8000002 20.200001
-4.1999998 7.8000002 20.200001
-5.8000002 8.1999998 20.6
-5 8.1999998 20.6
-6.1999998 8.6000004 21.4
-6.1999998 8.6000004 21.799999
-6.1999998 8.6000004 22.200001
-5 8.1999998 21.799999
-3.8 8.6000004 21.4
-4.5999999 8.1999998 21.799999
-4.1999998 8.1999998 21.799999
-4.1999998 8.6000004 21.799999
-4.1999998 8.6000004 22.200001
-3.4000001 9 21.799999
-3.4000001 9 22.200001
-2.2 7.8000002 19.799999
-2.2 7.8000002 20.6
-2.5999999 8.6000004 19.799999
-2.2 9 19.799999
-2.5999999 9.3999996 20.6
-3 9 21.4
-3 9.3999996 21.4
-3.4000001 12.6 19.4
-5 12.6 21.4
-5.8000002 12.2 22.200001
-6.1999998 12.6 22.200001
-5 12.6 21.799999
-3.8 12.6 21.4
-3.4000001 11.4 22.200001
-4.5999999 12.6 21.799999
-4.1999998 12.6 21.799999
-4.5999999 12.2 22.200001
-4.1999998 12.2 22.200001
-2.2 9.8000002 19.4
-2.2 10.2 19.4
-2.2 11 19.4
-2.2 11 19.799999
-2.2 11.4 19.4
-2.2 11.4 19.799999
-2.5999999 9.8000002 21.4
-2.5999999 10.2 21.4
-2.5999999 10.6 21.4
-2.5999999 11 21.4
-3 10.2 21.799999
-3 11 21.799999
-3 11 22.200001
-3 11.4 21.4
-3 11.8 21.4
-5.4000001 8.6000004 23
-5 8.6000004 23
-6.1999998 9 23
-5.8000002 8.6000004 23.4
-5 8.6000004 23.4
-5 9 23.799999
-4.5999999 8.6000004 23
-3.8 9 22.6
-3.8 9 23
-4.5999999 8.6000004 23.4
-4.5999999 9 23.4
-3.8 9.3999996 23.4
-4.5999999 9.3999996 24.6
-2.2 7.4000001 22.6
-2.2 7.4000001 23
-2.2 7.8000002 23
-2.2 7 23.799999
-2.2 7.8000002 23.799999
-2.5999999 8.1999998 23.799999
-5.8000002 11 23.799999
-3.4000001 9.8000002 23.4
-3.4000001 10.2 23.4
-3.4000001 11 23.799999
-5.8000002 11.8 22.6
-5.4000001 12.2 22.6
-5 12.2 23
-5.8000002 11.4 23.4
-5.8000002 11.4 23.799999
-5.4000001 11.8 23.799999
-5 11.8 23.799999
-3.4000001 11.4 22.6
-3.4000001 11.4 23
-5.8000002 10.2 24.200001
-5.8000002 10.6 24.200001
-5.8000002 11 24.200001
-5.4000001 11 24.6
-5.4000001 9.8000002 25
-5 9.8000002 25
-5 9.8000002 25.4
-5 10.2 25.4
-5.4000001 11 25
-5 11 25
-5 10.6 25.4
-5 11 25.4
-4.1999998 9.8000002 24.6
-4.1999998 10.2 24.6
-3.8 9.8000002 24.200001
-4.5999999 11 24.6
-4.5999999 9.8000002 25
-4.1999998 10.2 25
-4.5999999 10.2 25.4
-4.5999999 11 25
-4.5999999 10.6 25.4
-4.5999999 11 25.4
-5.8000002 11.4 24.200001
-5 11.4 24.200001
-25.4 18.6 14.2
-17.4 14.2 13.4
-16.6 13.4 13.8
-17.4 14.2 13.8
-17.4 15.4 14.2
-17.799999 16.200001 13.8
-16.6 17.4 13.8
-17 17.799999 13.4
-16.200001 18.6 13.4
-16.200001 19 13.4
-16.6 17.799999 13.8
-16.200001 18.200001 14.2
-16.200001 18.6 13.8
-17.4 16.200001 14.6
-17.4 16.6 14.6
-16.6 17.4 14.6
-16.6 17.4 15.4
-15 19 13.4
-15.8 19 13.8
-15.4 19 13.8
-15 19 13.8
-14.6 19 13.8
-14.2 19 13.8
-13.8 19 14.2
-13 18.6 13.8
-13.4 19 13.8
-13 18.6 14.2
-15 18.200001 15.8
-15.4 18.6 15.4
-14.6 18.6 15.4
-14.6 18.6 15.8
-14.2 18.6 14.6
-13 18.200001 15.8
-13.4 18.6 15.4
-13 18.6 15.4
-13.4 18.6 15.8
-17 15.4 16.200001
-17 15.8 16.200001
-16.200001 15.4 17.799999
-16.200001 15 19
-17 16.6 16.200001
-16.6 17 16.200001
-16.200001 16.6 17.799999
-15.4 18.200001 16.200001
-15.4 17.799999 17.4
-15.4 18.200001 17.4
-13.4 18.200001 16.200001
-13.4 17 19
-15.4 17.799999 17.799999
-14.2 17.799999 17.799999
-14.2 17.799999 19
-25 19.4 14.2
-23.4 19.4 13.8
-23 19.4 13.8
-23 19.799999 15.8
-21.799999 19.799999 13
-22.200001 19.4 13.4
-21.4 19.799999 13.8
-20.6 21 13.8
-21.4 20.6 14.6
-22.200001 19.799999 15.4
-21.799999 20.6 15.8
-21 21 14.6
-21.4 21 15.8
-24.200001 24.6 14.2
-22.6 24.6 13.8
-22.6 25 13.8
-25.4 23 15.4
-25.4 23 15.8
-25 23.4 15.4
-24.200001 24.200001 14.6
-23 24.200001 14.6
-23 24.200001 15.4
-21 23 13.8
-21 23 14.2
-21.4 23.799999 13.8
-20.6 22.6 13.4
-20.6 23 13.8
-19.799999 25.4 14.2
-19.4 25.4 14.2
-21.4 23 14.6
-21.799999 23 15.8
-21 22.6 15.8
-21.4 23 15.8
-21.799999 23.4 15.4
-22.200001 23.799999 15.4
-24.200001 20.200001 16.200001
-23.799999 20.200001 16.6
-23.799999 20.6 17.4
-22.6 20.200001 17.4
-25.4 21 16.6
-25.4 21.4 16.6
-25 21 17.4
-25 21.4 17.4
-25 21.799999 17.4
-24.200001 20.6 17.799999
-23.799999 20.6 17.799999
-23 20.6 17.799999
-22.6 20.6 17.799999
-24.6 21 17.799999
-24.6 21.4 17.799999
-24.200001 21.799999 19
-24.200001 22.200001 19
-22.6 21 17.799999
-23.799999 21.4 19
-23.4 21.4 19
-23 21.4 19
-22.6 21.4 19
-23.799999 21.799999 19
-23.799999 22.200001 19
-23 21.799999 19
-22.6 21.799999 19
-23 22.200001 19
-22.6 22.200001 19
-22.200001 20.6 17.4
-21.799999 21 16.6
-21.799999 21.799999 16.6
-25.4 23 16.200001
-24.200001 23.4 17.4
-23.4 23.799999 16.200001
-23.4 23.4 17.4
-24.6 22.6 17.799999
-24.200001 23 17.799999
-23 23 17.799999
-23.4 23.4 17.799999
-23 23.4 17.799999
-23.799999 22.6 19
-23.4 22.6 19
-23 22.6 19
-21.799999 22.6 16.6
-17.4 23.4 13.8
-18.200001 25 13.8
-19 25.4 14.6
-13 23.4 14.2
-15.8 23 14.6
-13 23.4 14.6
-13.8 23 15.8
-17 23.799999 16.200001
-16.200001 23.799999 17.4
-17 24.200001 16.6
-16.6 24.200001 17.799999
-14.6 23 16.200001
-15.8 23.799999 17.4
-14.2 23 16.200001
-13.4 23.799999 16.200001
-13 23.799999 16.200001
-13.8 23.799999 17.4
-13 24.6 17.4
-15.4 23.4 17.799999
-14.6 23.4 17.799999
-15 23.799999 19
-14.2 23.4 17.799999
-15 13.4 19.799999
-14.6 14.2 19.799999
-15.4 13.4 20.200001
-15 13.8 20.200001
-15 14.2 20.200001
-15 14.6 19.799999
-15.4 15.4 19.799999
-14.6 14.6 20.200001
-15.4 15.8 20.6
-15 15.4 20.6
-13 15.8 19.799999
-14.2 15 20.6
-13.4 15 20.200001
-13.8 15.4 20.200001
-13.8 15.4 20.6
-13.4 15.4 20.200001
-13.4 15.8 20.200001
-13.4 15.8 20.6
-14.6 13 21.4
-14.2 13.4 21.4
-13 14.2 21.4
-14.2 13 21.799999
-14.2 13.4 21.799999
-13.8 13.4 21.799999
-14.2 13 22.200001
-13.8 13 22.200001
-13 13 22.200001
-13.8 13.8 21.799999
-13.4 13.8 21.799999
-14.6 15.4 21.4
-15 15.8 21.4
-14.6 15.8 21.4
-14.6 15.8 21.799999
-14.2 15.4 21.4
-14.2 15.8 21.4
-14.2 15.8 21.799999
-15.8 16.200001 19.4
-15.4 16.200001 20.6
-15 16.6 20.200001
-15 16.200001 20.6
-14.6 17 20.200001
-13.8 16.200001 20.6
-13.4 16.200001 20.6
-14.6 16.200001 21.4
-13.8 13 22.6
-13.8 13.4 22.6
-13.4 13 22.6
-13 13 22.6
-13.4 13.4 22.6
-13 13.4 22.6
-23.4 21.4 19.4
-23 21.4 19.4
-23.799999 21.799999 19.4
-23.4 21.799999 19.4
-23.799999 22.200001 19.4
-23.4 22.200001 19.4
-23.4 21.799999 19.799999
-23.799999 22.200001 19.799999
-23.4 22.200001 19.799999
-23 21.799999 19.4
-23 22.200001 19.4
-23.4 22.6 19.4
-16.200001 24.200001 19.4
-16.6 24.6 19.4
-16.200001 24.6 19.4
-17 25.4 19.4
-16.6 25.4 19.4
-16.6 25.4 19.799999
-16.200001 25 20.200001
-16.200001 25.4 20.200001
-16.200001 25.4 20.6
-15.8 24.6 19.799999
-15.4 24.6 19.799999
-14.6 24.6 19.799999
-15.4 24.6 20.200001
-15.4 24.6 20.6
-15 24.200001 20.200001
-15 24.6 20.200001
-14.6 24.6 20.200001
-15 24.6 20.6
-15.8 25.4 20.200001
-15.8 25 20.6
-15.4 25 20.6
-15.8 25.4 20.6
-15 25 20.6
-13.4 24.6 19.4
-14.2 25 20.6
-14.2 25.4 20.6
-15.4 25.4 21.4
-15 25.4 21.4
-14.6 25.4 21.4
-11.4 15.8 14.6
-11.8 15.8 15.4
-11.4 17 14.2
-11.8 17.4 14.6
-11.8 16.200001 15.4
-12.2 17.4 15.4
-11.8 17 15.8
-9 16.6 15.8
-9.3999996 17 15.8
-9 17 15.8
-9 17.4 15.8
-9 17.799999 15.8
-9 18.200001 15.8
-9 18.6 15.8
-9 19 15.8
-8.6000004 19 15.8
-10.6 14.2 16.6
-11 13.8 17.4
-11 14.2 17.4
-11.8 15.8 16.200001
-11.8 15 17.4
-12.2 15.4 17.4
-12.2 15.8 17.4
-11.4 14.2 17.799999
-11.4 13 19
-11.4 13.4 19
-11.4 14.2 19
-11 13.4 18.200001
-12.2 15 19
-11.8 14.6 19
-12.6 15.4 19
-9.3999996 14.6 16.6
-9.3999996 15 16.6
-9.3999996 15.4 16.6
-8.6000004 15.8 18.200001
-12.2 17.4 16.200001
-12.2 16.200001 17.4
-12.2 16.6 17.4
-12.6 17 17.4
-12.2 17 17.4
-12.6 17.4 17.4
-12.6 17 17.799999
-12.6 16.6 19
-8.6000004 16.6 17.799999
-8.6000004 17 17.799999
-8.6000004 17.4 17.799999
-8.6000004 17 18.200001
-8.6000004 17.4 18.200001
-8.1999998 19 17.799999
-3.4000001 13.8 18.200001
-3.4000001 14.2 18.200001
-3.4000001 14.6 18.200001
-3 13 18.200001
-3 14.6 17.799999
-2.5999999 15 17.799999
-3 14.6 18.200001
-2.2 15.8 18.200001
-1.8 16.6 16.6
-1.8 17 16.6
-1.8 17.4 16.6
-1.8 17.799999 16.6
-2.2 19 16.200001
-2.2 18.6 16.6
-2.2 16.200001 18.200001
-2.2 16.6 18.200001
-2.2 17.4 18.200001
-2.2 17.799999 18.200001
-2.2 18.200001 18.200001
-2.5999999 18.6 17.799999
-3 19 17.799999
-2.5999999 18.6 18.200001
-7 20.200001 15.8
-7 20.6 15.8
-8.6000004 22.200001 14.6
-8.1999998 22.200001 15.8
-11.8 22.6 14.2
-11.8 22.6 14.6
-12.6 23.799999 15.8
-7.4000001 22.6 15.8
-7 22.6 15.8
-7.8000002 19.799999 16.200001
-7.4000001 19.799999 16.200001
-7.4000001 20.200001 16.200001
-7 20.200001 16.200001
-6.5999999 20.200001 16.200001
-6.5999999 20.6 16.200001
-7.4000001 22.200001 16.200001
-8.1999998 19.4 17.799999
-7.8000002 19.4 17.799999
-7.4000001 19.4 18.200001
-6.5999999 19.799999 17.799999
-6.5999999 20.200001 17.799999
-11.4 22.6 16.200001
-11.8 23 16.200001
-11.8 23.4 16.200001
-11.4 23.4 17.799999
-11.4 23.799999 17.799999
-11.8 24.200001 17.799999
-7.4000001 22.6 16.6
-6.5999999 22.6 16.200001
-9 23 17.799999
-8.6000004 23 17.799999
-8.1999998 23 18.200001
-8.1999998 23.4 18.200001
-8.1999998 23.4 19
-7.8000002 23 17.799999
-6.5999999 23.4 17.799999
-7 23.4 18.200001
-7.8000002 23.4 19
-7 23.799999 19
-6.1999998 20.6 15.8
-5 20.200001 15.8
-4.1999998 20.200001 15.8
-3.4000001 20.200001 15.8
-3 19.799999 15.8
-5.4000001 23.4 15.8
-5 24.200001 14.6
-5 24.6 14.6
-5.4000001 24.200001 15.8
-5.4000001 24.6 15.8
-5 25 15.8
-5 19.799999 16.200001
-6.1999998 20.200001 16.200001
-5.8000002 20.200001 16.200001
-6.1999998 20.6 16.200001
-6.1999998 20.200001 16.6
-5.4000001 20.200001 16.200001
-5 20.200001 16.200001
-4.5999999 19.799999 16.200001
-4.5999999 19.799999 16.6
-4.1999998 19.799999 16.6
-3.8 19.799999 16.200001
-3.4000001 19.799999 16.200001
-3.4000001 19.4 16.6
-3.8 19.799999 16.6
-3.4000001 19.799999 16.6
-4.5999999 20.200001 16.200001
-3.8 20.200001 16.200001
-6.1999998 19.799999 18.200001
-5 19.799999 18.200001
-6.1999998 20.200001 17.799999
-6.1999998 20.200001 18.200001
-4.1999998 19.799999 17.799999
-4.5999999 19.799999 18.200001
-4.1999998 19.799999 18.200001
-3.4000001 19.4 17.799999
-3.4000001 19.4 18.200001
-3 19.4 16.200001
-5.4000001 24.6 16.200001
-5.4000001 25 16.200001
-5 25 16.200001
-5.4000001 25.4 16.200001
-6.1999998 23.799999 17.799999
-6.1999998 24.200001 18.200001
-6.1999998 24.6 18.200001
-12.6 15 19.4
-12.2 14.6 20.200001
-8.6000004 13.8 19.799999
-8.1999998 13 20.200001
-8.6000004 13.4 20.200001
-8.1999998 13.4 20.200001
-8.1999998 13 20.6
-8.6000004 13.8 20.200001
-8.1999998 15 20.6
-8.1999998 15.4 20.200001
-8.1999998 15.8 20.200001
-8.1999998 15.4 20.6
-8.1999998 13.8 21.799999
-7.8000002 13 22.200001
-7.4000001 13 22.200001
-7.8000002 14.2 22.200001
-7.4000001 15.4 21.799999
-7.4000001 15.8 21.799999
-7 15.8 21.799999
-8.1999998 17 19.4
-7.8000002 16.200001 20.200001
-7.8000002 16.6 20.200001
-7.8000002 17 20.200001
-7.8000002 17.799999 20.200001
-7.8000002 18.200001 20.200001
-7 16.200001 21.799999
-7 17.4 21.799999
-6.5999999 18.6 21.4
-7 17.799999 21.799999
-7.4000001 13.4 23
-7 13 22.6
-7 13.4 22.6
-7 13.8 23.4
-6.5999999 13.8 23.799999
-7 14.2 23.799999
-7.4000001 15.4 22.6
-7 15 23.4
-6.5999999 15 23.4
-7 14.6 23.799999
-6.5999999 14.2 24.200001
-6.5999999 17 22.6
-3.8 13 19.4
-3.8 13 19.799999
-4.1999998 13.8 20.200001
-4.1999998 13.8 20.6
-3.8 14.6 19.799999
-3.4000001 15 19.799999
-3.4000001 15.4 19.799999
-3.4000001 15.8 20.6
-5.8000002 13 21.799999
-5.8000002 13 22.200001
-5.4000001 13 22.200001
-5 13.8 21.799999
-6.1999998 15.8 22.200001
-5.8000002 15.8 22.200001
-5 15.4 21.799999
-5 15.8 22.200001
-3.8 15.4 21.4
-3.8 15.8 21.4
-4.5999999 14.6 21.799999
-4.5999999 15.4 21.799999
-3 15.4 19.4
-2.5999999 15.8 19.799999
-3 15.4 20.200001
-3 15.8 20.200001
-6.1999998 19 20.6
-3.8 19 19.799999
-3.8 18.6 20.6
-3.4000001 16.200001 21.4
-3.4000001 17.4 21.4
-4.1999998 16.200001 22.200001
-3.8 16.200001 22.200001
-5.8000002 18.6 21.4
-5.8000002 19 21.4
-5.4000001 18.6 21.4
-5.4000001 19 21.4
-6.1999998 18.6 21.799999
-5.8000002 18.6 21.799999
-3.8 17.799999 21.4
-3.4000001 17.799999 21.4
-3.8 18.200001 21.4
-3.8 17.799999 21.799999
-3.8 18.200001 21.799999
-2.5999999 16.6 19.4
-2.5999999 16.200001 19.799999
-2.5999999 17 19.799999
-3 16.200001 20.200001
-2.5999999 16.200001 20.200001
-3 17.4 20.6
-2.5999999 18.200001 19.4
-3 17.799999 19.799999
-2.5999999 17.799999 19.799999
-5.4000001 14.2 23
-6.1999998 13.4 23.4
-6.1999998 13.8 23.4
-5.8000002 14.2 23.799999
-5 14.6 22.6
-6.1999998 15.4 23
-5.8000002 14.6 23.4
-5.8000002 14.6 23.799999
-4.5999999 15.8 22.6
-6.1999998 13.8 24.200001
-6.1999998 14.2 24.200001
-6.1999998 14.2 24.6
-6.1999998 14.6 24.200001
-6.1999998 16.6 22.6
-5.8000002 16.6 23
-5 16.200001 22.6
-5.4000001 16.200001 23
-5.8000002 16.6 23.4
-5 16.200001 23.4
-5.8000002 17.4 23.4
-5.8000002 17 23.799999
-5.4000001 17.4 23.4
-4.5999999 17.4 23
-3.8 17.4 22.6
-4.5999999 16.200001 23.4
-4.5999999 16.6 23.799999
-4.5999999 17.4 23.4
-4.5999999 17 23.799999
-5.4000001 18.200001 22.6
-6.1999998 17.799999 23.4
-5.8000002 17.799999 23.4
-5.4000001 17.799999 23.4
-9.8000002 23.799999 19.799999
-11.4 24.200001 19.4
-11.4 24.6 19.799999
-9.8000002 24.200001 20.6
-9.8000002 24.6 20.6
-9.8000002 24.6 21.4
-10.6 25 21.4
-11 25.4 21.4
-10.6 25.4 21.4
-9.8000002 25 21.4
-9.8000002 25.4 21.799999
-10.2 25.4 22.200001
-9.8000002 25.4 22.200001
-9.3999996 23.799999 19.799999
-8.1999998 23.4 19.4
-8.6000004 23.799999 19.4
-8.1999998 23.799999 19.4
-9 25 20.6
-7 24.200001 19.4
-6.5999999 24.6 19.799999
-7 25 20.200001
-6.5999999 25.4 20.6
-8.1999998 24.6 21.4
-8.6000004 25 21.4
-8.6000004 25.4 21.4
-9.3999996 25.4 21.799999
-8.1999998 25.4 22.200001
-7.8000002 25.4 21.799999
-7.8000002 25.4 22.200001
-10.2 25.4 22.6
-9.8000002 25.4 22.6
-5.8000002 19.4 19.4
-6.1999998 19.4 20.200001
-4.5999999 19.4 19.4
-4.1999998 19.4 19.4
-42.599998 27 5.8000002
-42.599998 27.4 5.8000002
-43 27.799999 5.8000002
-42.599998 27.799999 5.8000002
-43 28.200001 5.8000002
-42.599998 28.200001 5.8000002
-43 28.6 5.8000002
-43 29 5.8000002
-43 29.799999 5.8000002
-42.599998 29.799999 5.8000002
-41.799999 30.6 5.8000002
-38.599998 33.799999 5.8000002
-41.799999 26.6 7.4000001
-42.200001 27 7.4000001
-42.599998 27.799999 7.4000001
-42.200001 27.4 7.4000001
-42.200001 27.4 7.8000002
-42.599998 28.200001 7.4000001
-42.200001 28.6 7.8000002
-41 26.200001 7.4000001
-40.599998 25.799999 7.4000001
-40.200001 25.799999 7.4000001
-40.599998 26.200001 7.8000002
-39.799999 26.200001 7.8000002
-39 26.200001 7.4000001
-39.400002 26.6 8.6000004
-39.799999 26.200001 9.3999996
-43 29 7.4000001
-43 29.4 7.4000001
-42.200001 29.4 7.8000002
-42.599998 29.799999 7.4000001
-41.799999 30.6 7.4000001
-42.200001 29.4 8.1999998
-41.799999 29.4 9
-41.799999 29.799999 9
-41 31 7.8000002
-40.200001 31.4 7.8000002
-39.400002 31.4 7.8000002
-40.599998 31 9.3999996
-39.799999 27 10.6
-40.200001 27.4 11.8
-40.200001 27.799999 11.8
-41 28.200001 11.8
-41 28.6 11.8
-40.200001 27.799999 12.2
-40.200001 28.200001 12.2
-39 28.200001 11.8
-39 27.799999 12.2
-39.400002 28.200001 12.2
-39 28.200001 12.6
-40.599998 30.200001 11
-40.599998 29.799999 11.4
-40.200001 30.200001 11.4
-40.599998 29.799999 11.8
-40.200001 29.799999 11.8
-40.599998 29 12.2
-39 29.4 11.8
-39 32.200001 7.8000002
-39 33 7.4000001
-36.599998 36.599998 5.8000002
-32.200001 37.799999 5.8000002
-38.200001 26.200001 7.4000001
-37.799999 26.6 7.4000001
-36.599998 27 7
-37 27.4 7
-37.400002 27.4 7.4000001
-37.799999 27.4 9.3999996
-37.799999 27.799999 9.3999996
-37.799999 28.6 9.3999996
-37.400002 28.6 9.3999996
-37 28.6 9.3999996
-36.599998 28.200001 9
-36.599998 28.200001 9.3999996
-36.599998 28.6 9.3999996
-37.799999 29 9.3999996
-32.599998 31.4 9
-35 27.799999 12.6
-38.200001 30.200001 11
-37.400002 29.799999 11.8
-35.799999 29.4 12.6
-35.400002 30.200001 12.6
-38.200001 30.6 11.8
-37.400002 31.799999 11.8
-37 31.799999 11.8
-37.400002 30.6 12.2
-37 31.4 12.6
-35.799999 31.799999 11.8
-35.799999 31 12.2
-36.599998 31.799999 12.6
-36.200001 31.799999 12.6
-35.799999 31.4 12.2
-35.400002 31.4 12.2
-35.799999 31.799999 12.2
-33.799999 31.4 11
-32.200001 31 11
-33 30.200001 12.6
-34.599998 30.6 12.2
-35 30.6 12.6
-33.799999 30.6 12.6
-33 30.6 11.8
-29.799999 25.799999 12.2
-27.799999 27.799999 11.4
-27.799999 27.799999 11.8
-31.799999 31.799999 11
-31.4 31.4 12.2
-25.799999 30.6 10.6
-26.6 29.4 11.4
-26.6 29.799999 11.4
-27 29.799999 11.8
-26.6 31 11.4
-27 31 11.8
-25.799999 31 11.4
-25.799999 31.4 12.2
-25.799999 31.4 12.6
-38.200001 33.400002 7.4000001
-38.200001 33.400002 7.8000002
-36.200001 33.400002 7.8000002
-37.799999 33.799999 7.4000001
-36.200001 33.799999 7.8000002
-37.400002 33.400002 8.1999998
-36.599998 33.400002 8.1999998
-32.200001 34.200001 7.8000002
-32.200001 34.599998 7.8000002
-34.200001 32.200001 8.1999998
-34.599998 33 8.1999998
-37.799999 37.400002 7
-37.799999 37.799999 7
-36.200001 37 7.4000001
-35.799999 37 7.8000002
-35.400002 37 7.8000002
-37.400002 37.799999 8.1999998
-35.799999 37.400002 9
-35 36.599998 7.4000001
-34.599998 37 7
-35 37 7.4000001
-34.599998 37 7.4000001
-35 37 7.8000002
-34.200001 37.400002 7.4000001
-32.599998 37 7
-33.400002 37.799999 7
-33 37.799999 7
-33 38.200001 7.4000001
-33.400002 38.200001 7.8000002
-34.200001 37.799999 8.6000004
-34.599998 37.799999 9.3999996
-33.799999 38.200001 9.3999996
-33.400002 38.200001 9
-35.400002 32.200001 11
-37 32.200001 11.8
-36.200001 32.200001 11.8
-35.799999 32.200001 11.8
-36.599998 32.200001 12.2
-31.799999 32.599998 9
-30.200001 33 9.3999996
-31.4 34.599998 8.1999998
-31 34.599998 8.1999998
-30.200001 34.599998 8.1999998
-29.799999 35 8.6000004
-29 34.599998 8.6000004
-31.799999 35.799999 7.8000002
-31 38.200001 7
-31 38.200001 7.4000001
-30.6 36.200001 8.6000004
-30.6 36.599998 8.6000004
-30.6 36.200001 9
-30.200001 35.400002 9
-30.6 38.200001 8.6000004
-30.6 37.400002 9
-30.6 37.799999 9
-31.4 32.200001 11
-29.799999 32.200001 12.2
-29.4 32.200001 12.2
-27.799999 34.200001 12.6
-29 36.200001 12.2
-29.4 38.200001 11.4
-29.4 37 12.2
-29.799999 37.799999 12.2
-27.4 35.400002 12.6
-26.200001 36.200001 12.6
-26.6 38.200001 11.8
-26.6 37.799999 12.6
-27 38.200001 12.6
-39 38.599998 5
-38.599998 39.400002 5.8000002
-38.599998 38.599998 7
-38.200001 41.400002 5.8000002
-32.200001 39.400002 5
-32.200001 39.799999 5
-32.599998 38.599998 5.8000002
-32.599998 39 5.8000002
-32.599998 39.400002 5.8000002
-33 40.200001 5.8000002
-32.599998 40.200001 5.8000002
-37.799999 41.799999 5.8000002
-35.400002 42.599998 5.8000002
-34.599998 42.599998 4.1999998
-34.200001 43 4.1999998
-34.200001 42.599998 4.5999999
-34.200001 43 4.5999999
-34.200001 43.400002 4.1999998
-34.200001 43.400002 4.5999999
-34.200001 44.200001 4.1999998
-34.200001 44.599998 4.1999998
-34.200001 42.599998 5
-33.799999 41.799999 5.8000002
-34.200001 42.200001 5.8000002
-35 42.599998 5.8000002
-33.799999 43 5.8000002
-33.799999 43.400002 5.8000002
-33.799999 44.200001 5.8000002
-33.400002 44.599998 5.8000002
-31.799999 40.200001 5
-31.799999 40.599998 5.8000002
-30.6 40.200001 5.8000002
-29.799999 40.599998 5.8000002
-29.4 40.599998 5.8000002
-29 40.599998 5.8000002
-28.6 41.400002 5.8000002
-28.200001 42.599998 5.8000002
-28.6 44.599998 5.8000002
-33.799999 45 4.1999998
-33.799999 45 4.5999999
-33.400002 45.400002 4.1999998
-33.400002 45.400002 4.5999999
-33 45.400002 4.5999999
-32.200001 45.799999 4.1999998
-32.599998 45.799999 4.5999999
-32.200001 45.799999 4.5999999
-33 45 5.8000002
-31.799999 46.200001 4.1999998
-31.4 46.200001 4.1999998
-31 46.599998 4.1999998
-31 45.799999 5.8000002
-30.6 45.799999 5.8000002
-30.200001 45.799999 5
-29.799999 45.799999 5
-29.799999 49.400002 5.8000002
-29.799999 51 5
-29.799999 49.799999 5.8000002
-29.799999 50.599998 5.8000002
-38.200001 39.400002 7.4000001
-37.799999 39 8.1999998
-38.200001 39 8.6000004
-37.799999 39 9
-37.400002 41 9.3999996
-33 38.599998 7
-33 39 7
-33.400002 39 7.8000002
-33 39 7.8000002
-33.400002 39.400002 7.8000002
-33 39.799999 7.8000002
-33 40.200001 7.4000001
-33.400002 40.599998 7.8000002
-33.400002 38.599998 9
-36.599998 42.200001 7
-35.400002 42.599998 7
-36.599998 41.799999 7.4000001
-36.599998 41.799999 7.8000002
-36.200001 41.799999 7.8000002
-36.200001 41.799999 9
-33.799999 43 6.5999999
-34.599998 42.200001 7.4000001
-34.200001 41.799999 7.4000001
-33.799999 41.799999 7.4000001
-33.400002 42.200001 6.5999999
-33.400002 41.799999 7
-33.400002 43 7
-33.400002 43.799999 6.5999999
-33 43.400002 7.8000002
-33 43.799999 7.8000002
-32.599998 41.799999 8.6000004
-33.400002 43 8.1999998
-32.599998 42.599998 9.3999996
-32.599998 43.799999 9.3999996
-32.599998 44.200001 9.3999996
-37.400002 39.400002 10.6
-37.400002 40.200001 10.6
-37 40.200001 10.6
-37 40.599998 10.6
-36.599998 40.599998 11
-36.599998 41 11
-35.799999 41.400002 11
-35.400002 41.400002 11
-37 39.400002 11.4
-37 39.799999 11.4
-36.599998 39 11.4
-36.599998 39 11.8
-35.799999 38.599998 11.4
-35.799999 38.599998 11.8
-36.599998 39.799999 11.4
-36.599998 39.400002 11.8
-36.599998 39.799999 11.8
-36.200001 39 12.2
-35.799999 39 12.2
-35.400002 39 12.6
-35.400002 39.400002 12.6
-35.400002 39.799999 12.6
-36.599998 40.599998 11.4
-35.799999 40.599998 11.8
-35.400002 40.599998 11.8
-35.400002 41 11.8
-36.200001 40.200001 12.2
-34.200001 40.200001 10.6
-34.599998 41 10.6
-34.599998 39 11.8
-34.200001 40.200001 11.4
-32.200001 43.400002 10.6
-31 38.599998 7
-30.6 39 7
-31.4 40.599998 7
-31 40.599998 7.8000002
-31.799999 41 7.8000002
-31.4 41 7.8000002
-31 41 7.4000001
-30.6 41 7.4000001
-31 41 7.8000002
-30.6 38.599998 8.6000004
-29.4 39.799999 8.6000004
-29 39.799999 8.6000004
-31.799999 41 8.1999998
-31.4 41 8.1999998
-31.4 41 8.6000004
-29.799999 41.400002 8.1999998
-29.4 41.400002 8.1999998
-30.200001 41.400002 9
-29.799999 41.400002 9
-30.200001 41.400002 9.3999996
-28.6 40.200001 7
-27.4 40.599998 6.5999999
-28.6 39.799999 8.6000004
-27.4 39.799999 8.6000004
-27.799999 39.799999 9
-27.4 39.799999 9
-26.6 39.799999 8.6000004
-26.200001 39.799999 8.1999998
-26.200001 39.799999 9
-28.6 40.200001 8.6000004
-27.4 40.200001 8.6000004
-26.200001 40.200001 8.6000004
-25.799999 40.200001 8.6000004
-25.799999 40.200001 9
-29 44.200001 7.8000002
-29 42.200001 8.1999998
-29 43 8.6000004
-29 43 9
-29 43.400002 8.1999998
-29 43.400002 9.3999996
-29.799999 44.599998 9
-28.6 42.599998 7
-28.6 43 7
-28.6 43.400002 7
-28.6 43.799999 7.8000002
-29.4 38.599998 11.4
-29.4 38.599998 11.8
-27.4 39.400002 10.6
-28.6 39 11.4
-26.200001 38.599998 11.4
-25.799999 38.599998 12.2
-25.799999 39 12.2
-31.4 41.799999 10.6
-31 41.799999 10.6
-31.799999 43.799999 11
-30.6 42.200001 11.4
-31.4 42.599998 11.4
-31.799999 43 11.4
-31.4 43 11.4
-30.200001 43 11.4
-31.799999 43.400002 11.4
-31 43.400002 11.4
-31 43.799999 11.4
-32.200001 45.400002 6.5999999
-31.799999 45.400002 6.5999999
-31.4 45.400002 6.5999999
-31 45.400002 6.5999999
-31 45.400002 7
-31.4 45.799999 6.5999999
-31 45.799999 6.5999999
-29.799999 45 7
-29.4 45 7
-31.4 45 8.1999998
-31.4 45 8.6000004
-30.6 45.400002 8.1999998
-30.6 45 8.6000004
-29.799999 45 8.1999998
-30.200001 45 8.6000004
-27 47.400002 7.8000002
-25.799999 47.400002 7.8000002
-28.200001 47.799999 9
-27.799999 47.799999 9
-27 47.799999 9.3999996
-26.200001 47.799999 9
-29.4 50.200001 7
-29.4 50.200001 7.4000001
-29 50.200001 7.4000001
-29 49 8.1999998
-29 50.599998 8.6000004
-29 50.599998 9
-28.6 48.599998 8.6000004
-28.6 48.200001 9
-28.200001 48.200001 9
-28.200001 48.200001 9.3999996
-28.6 48.599998 9.3999996
-28.6 49 9.3999996
-28.6 49.400002 9.3999996
-27.4 47.799999 10.6
-28.200001 49 10.6
-28.200001 49.400002 11.4
-27.799999 49.400002 11.8
-27 48.599998 11.4
-27 48.599998 11.8
-26.6 48.599998 11.8
-25.799999 49.400002 11.4
-26.200001 49.400002 12.6
-28.200001 49.799999 11.4
-25.799999 49.799999 11.4
-25.799999 50.200001 11.8
-26.6 50.599998 11.8
-25.799999 50.599998 11.4
-27 49.799999 12.6
-27 50.200001 12.6
-26.200001 49.799999 12.6
-39.799999 28.200001 13
-39.400002 28.200001 13
-39.400002 28.6 13
-39.799999 28.6 13.4
-39.799999 28.6 13.8
-40.200001 29 13
-39.799999 29.4 13
-34.200001 26.6 13.4
-33.799999 25.799999 13.8
-34.599998 27.799999 13
-34.599998 27.799999 13.4
-35 28.200001 13
-35 28.6 13
-35 28.6 13.4
-34.200001 27.4 13.8
-34.200001 27.799999 13.8
-34.599998 28.6 14.2
-34.200001 28.200001 13.8
-32.599998 27 14.6
-33.400002 25.799999 15.4
-32.200001 25.799999 15.4
-32.599998 25.799999 15.8
-32.200001 25.799999 15.8
-33.799999 28.200001 14.6
-32.599998 27.4 15.8
-32.200001 27.799999 15.8
-32.599998 28.200001 15.8
-32.200001 28.200001 15.8
-35.400002 29 13
-37 30.6 13.4
-37 31.4 13.4
-35 29 13
-34.200001 29.799999 13.4
-33.799999 29.799999 13.4
-33.799999 30.200001 13.4
-34.599998 29 14.2
-33.799999 29.799999 13.8
-34.200001 29.799999 14.2
-33.400002 29.799999 13.4
-33.400002 30.200001 13.4
-32.599998 29.799999 13
-33 29.4 13.8
-32.200001 29.4 13.8
-33 29.799999 13.8
-32.599998 29.799999 13.8
-34.599998 29 14.6
-34.200001 29 14.6
-33.799999 29.4 14.6
-34.200001 29 15.4
-33.400002 29 14.6
-33 29 14.6
-32.200001 29 14.6
-30.6 26.200001 13.4
-31 26.6 13
-30.6 28.200001 13
-30.6 28.200001 13.4
-31 28.6 13.8
-30.200001 28.200001 13
-29.799999 28.200001 13.4
-31.799999 27.799999 14.6
-31.4 29.799999 13.4
-31.4 30.200001 13.4
-31.4 31.4 13
-30.200001 31.799999 13.8
-30.6 30.200001 15.8
-30.200001 29 14.6
-30.200001 29.4 15.8
-29.799999 29.4 15.8
-29.4 29 15.8
-29.4 29.4 15.8
-29 29.4 15.8
-30.200001 29.799999 15.8
-30.200001 30.200001 15.8
-30.6 31 14.6
-30.200001 31.4 14.6
-29.4 31.799999 14.6
-30.200001 30.6 15.8
-30.200001 31 15.8
-29.799999 31 15.8
-29 31 15.8
-29 31.4 15.8
-27 29.799999 13
-27.799999 29.4 14.6
-28.6 29.4 15.4
-28.6 29.799999 15.8
-28.200001 30.200001 15.8
-27.799999 30.6 14.6
-27.799999 31 14.6
-28.200001 30.6 15.8
-28.6 31 15.8
-29 29.4 16.200001
-29.799999 29.799999 16.200001
-29.799999 30.200001 16.200001
-29 29.799999 16.6
-29 30.200001 16.6
-29.799999 31 16.200001
-29 31 16.200001
-28.6 29.4 16.200001
-28.6 29.799999 16.200001
-28.6 29.799999 16.6
-28.6 30.200001 16.6
-28.6 30.6 16.200001
-30.6 32.200001 13
-30.200001 32.200001 13
-29.4 32.200001 13
-29.4 32.599998 13
-29 32.200001 14.6
-28.6 32.599998 13
-27 32.599998 13.8
-27.799999 33.799999 13
-27.799999 34.200001 13
-27.4 34.599998 13
-27.4 35 13
-27 35 13.8
-27 34.599998 14.2
-26.200001 32.599998 14.6
-27 33.799999 14.6
-29 37 13
-29 37.400002 13
-28.200001 36.599998 14.2
-25.799999 36.599998 14.2
-28.6 38.200001 13.4
-28.6 37 14.2
-27.4 37 13.8
-25.799999 37.400002 14.2
-28.6 37.400002 14.6
-25.799999 33.400002 16.200001
-35.400002 39.799999 13
-35.799999 39.400002 13.4
-26.6 49.400002 13
-26.6 49.799999 13
-24.200001 28.6 11.4
-24.200001 28.6 11.8
-23.799999 28.200001 11.4
-23 27.4 12.2
-22.200001 26.200001 12.6
-24.200001 31 11
-24.200001 29 11.4
-24.200001 29.4 11.4
-24.200001 29 11.8
-24.200001 29.4 11.8
-24.200001 29.799999 11.4
-24.200001 29.799999 11.8
-24.200001 30.200001 11.8
-24.200001 30.6 11.4
-24.200001 31 11.4
-24.200001 30.6 11.8
-24.200001 31.4 11.4
-24.6 31.4 12.2
-24.6 31.799999 12.2
-24.200001 31.799999 12.2
-24.200001 31.799999 12.6
-18.200001 31.4 11
-16.6 29.4 12.6
-16.6 29.799999 12.6
-21.799999 35.400002 9.3999996
-21.4 36.200001 9.3999996
-21.4 36.599998 9.3999996
-23 32.599998 11
-23.4 33 11
-23.799999 32.599998 12.2
-23.4 33.799999 12.2
-19.4 33 11
-22.200001 35 10.6
-22.200001 33 11.4
-21.799999 33 11.4
-19.4 33 11.4
-23.4 35.400002 12.6
-22.200001 35.400002 11
-20.6 36.599998 11
-20.200001 36.599998 11
-19.4 36.599998 10.6
-21 37 11
-21 37.400002 11
-22.200001 35.799999 12.2
-22.200001 36.200001 12.2
-21.799999 37 11.4
-21.799999 37.400002 11.4
-21 37.400002 11.4
-21.799999 37.400002 12.2
-22.200001 38.200001 12.2
-20.200001 37 11.8
-19.4 37 11.8
-19.4 37 12.2
-17.799999 36.599998 11
-17.4 36.599998 10.6
-17.4 37 10.6
-16.6 37.400002 10.6
-19 37 12.2
-19 37 12.6
-25.4 40.599998 8.1999998
-25.4 40.200001 8.6000004
-24.6 40.599998 8.6000004
-25.4 40.200001 9
-24.200001 40.599998 9
-24.6 40.200001 9.3999996
-23.799999 40.599998 9
-23.799999 40.200001 9.3999996
-24.200001 44.200001 9
-23.4 39.799999 11
-22.6 41 10.6
-25 39.400002 11.4
-24.6 39.400002 11.4
-24.6 39.799999 12.2
-23.799999 39.799999 12.2
-22.200001 41 10.6
-22.200001 41 11
-22.200001 38.599998 12.2
-23 44.599998 11.4
-22.6 44.599998 11.4
-20.200001 43 11
-19.799999 43 11
-21.799999 44.200001 11
-21.4 44.200001 10.6
-20.6 44.200001 10.6
-20.6 42.200001 12.6
-20.200001 42.200001 12.6
-21.799999 44.200001 11.4
-21 44.599998 11.8
-22.200001 44.599998 12.6
-21.4 44.599998 12.6
-19.4 43.799999 12.2
-19.799999 44.200001 12.2
-16.200001 40.200001 11.4
-13.4 39 11
-13 39 11
-13.8 39.400002 11.8
-15.4 41.400002 12.6
-16.200001 43 11
-19 43.400002 11
-17 43.400002 11
-19 42.599998 12.6
-18.6 43.400002 11.8
-17.4 43.400002 11.8
-16.200001 44.200001 12.6
-15.8 43.799999 11
-15.4 44.200001 11
-15.8 41.799999 11.4
-15.8 42.200001 11.4
-15.4 41.799999 12.6
-15.8 43.400002 11.4
-15.4 44.200001 11.4
-15.4 44.599998 11.8
-25 46.200001 9.3999996
-24.6 45.799999 9.3999996
-25 47.799999 8.6000004
-25 47 9.3999996
-25.4 47.799999 9
-24.200001 51 7
-24.200001 51 7.4000001
-23.799999 50.200001 7
-24.6 48.599998 8.6000004
-25 48.599998 9
-24.6 49 9
-24.200001 49 9
-24.6 49.400002 9.3999996
-25 50.599998 9.3999996
-23.4 49.799999 9.3999996
-23 49.799999 9
-22.6 49.799999 9.3999996
-24.200001 46.200001 11
-24.6 47.400002 10.6
-24.6 47.799999 10.6
-24.6 47.400002 11
-24.200001 45.799999 11.4
-23.799999 46.200001 12.6
-24.6 47 11.4
-24.200001 47 11.4
-24.200001 47.400002 11.4
-24.200001 47.400002 11.8
-23.799999 47.400002 12.6
-22.6 49.400002 10.6
-23 49.400002 11.4
-23.4 48.599998 12.6
-21.799999 51 11
-21.799999 51 11.4
-21.4 49.799999 12.6
-16.6 50.200001 8.1999998
-16.6 51 8.1999998
-16.6 50.200001 9.3999996
-17 51 9.3999996
-15 46.200001 11
-14.2 45.400002 11
-13.8 45.400002 11
-13 45.799999 10.6
-15 46.599998 11
-15 47 11
-15.4 45 11.8
-15.4 45 12.2
-15.4 46.200001 12.2
-15.4 45.799999 12.6
-15 46.200001 12.2
-13 45 11.8
-14.2 45 12.6
-15 46.599998 12.2
-15.4 47.400002 12.6
-16.200001 49 11
-17.4 50.200001 11
-17.799999 49 12.6
-17.799999 49.400002 12.6
-16.200001 48.200001 12.2
-16.200001 48.200001 12.6
-16.6 48.599998 12.6
-17.4 49 12.2
-17.799999 49.799999 12.6
-17.799999 51 12.2
-17.799999 50.599998 12.6
-15.8 48.599998 10.6
-15.8 48.200001 12.2
-12.2 39.400002 11
-10.2 40.599998 11
-9.8000002 41.400002 10.6
-10.2 41 11
-9.8000002 41 11
-10.2 41.400002 11.4
-10.6 41 12.6
-10.2 41 12.6
-10.2 41.400002 12.6
-9.8000002 43 10.6
-10.2 44.200001 10.6
-10.2 43 11.4
-10.2 41.799999 12.6
-10.2 43 12.6
-11.4 44.599998 12.6
-10.2 43.400002 11.4
-10.6 44.599998 11.4
-10.2 43.400002 12.6
-10.6 44.200001 12.6
-9.3999996 41.799999 10.6
-9.3999996 42.200001 10.6
-9.3999996 42.200001 11
-11.8 45.400002 11
-12.6 45.400002 11.4
-12.2 45.400002 11.4
-11.8 45 11.4
-23.4 28.6 13.4
-21.799999 26.200001 13.4
-21.4 26.200001 14.2
-20.200001 25.799999 15.4
-23.799999 29 13
-23.799999 29 13.4
-23.799999 29.4 13.4
-23.799999 30.200001 13
-23.799999 30.6 13
-23.4 29.4 15.4
-23 29.4 15.8
-23 30.6 15.8
-21.799999 27 16.200001
-21 26.6 16.200001
-21.4 28.6 17.4
-21 27 17.799999
-20.200001 26.200001 17.799999
-19.799999 26.200001 17.799999
-20.6 26.6 17.799999
-19.799999 27 19
-19.4 27 19
-20.200001 27.4 19
-20.6 27.799999 19
-20.6 28.200001 19
-22.6 29.4 16.6
-22.6 31 16.6
-21.799999 30.6 17.4
-19.799999 31 16.6
-20.6 31 17.4
-22.200001 29 17.799999
-22.200001 29.4 17.799999
-21.4 29 17.799999
-21 29 17.799999
-22.200001 29.799999 17.799999
-21.4 29.4 19
-21.4 29.799999 19
-21 30.200001 19
-20.200001 29 19
-19.4 29 19
-19.4 29.4 19
-21.4 30.6 17.799999
-21 30.6 17.799999
-21.4 31 17.799999
-20.6 30.6 17.799999
-20.6 31 17.799999
-16.200001 28.6 14.2
-18.6 25.799999 15.4
-16.6 28.200001 15.8
-15.8 28.6 14.2
-14.2 28.6 14.2
-15.8 28.6 15.8
-15 28.6 15.8
-14.2 28.6 15.8
-17.4 30.200001 13.4
-17 30.200001 13.4
-16.200001 29 13.8
-16.6 29 14.2
-18.6 31 14.2
-15.8 29 14.2
-14.6 29 14.2
-14.2 29 14.2
-13.8 29.4 14.2
-13.4 29.799999 14.2
-14.2 29 14.6
-13.4 29.4 14.6
-13 29.799999 14.6
-19 25.799999 16.200001
-19 26.200001 16.6
-18.200001 25.799999 16.200001
-17 28.200001 16.200001
-17 28.6 16.200001
-18.200001 27 17.799999
-19 27 19
-17 25.799999 17.799999
-17 26.200001 17.799999
-16.6 27 17.799999
-18.200001 27.4 17.799999
-18.6 27.4 19
-18.200001 27.799999 19
-15.8 28.200001 16.200001
-15.8 28.6 16.200001
-15.4 28.200001 16.6
-15.8 28.200001 17.4
-13.8 28.6 16.200001
-13 26.200001 19
-13 26.6 19
-13 27 19
-15.8 27.799999 17.799999
-13.4 28.200001 19
-19 29 19
-18.6 29 19
-13.4 29 16.200001
-24.200001 32.599998 13
-24.6 32.200001 13.8
-24.200001 33 13.8
-24.200001 34.599998 13
-24.200001 34.200001 13.8
-25 35 14.2
-23.799999 33.799999 13
-25.4 32.599998 14.6
-22.200001 32.200001 13.4
-21.4 32.599998 13
-20.6 32.599998 13.4
-20.200001 32.599998 13.4
-19.799999 32.200001 13
-25.4 35.799999 13.4
-25 35.799999 13.4
-25.4 35.400002 13.8
-25.4 35.799999 13.8
-25 35.799999 14.2
-24.6 35.799999 13.8
-22.6 36.599998 13.8
-22.6 37.799999 13.4
-22.6 37 14.2
-25 36.599998 15.4
-23.799999 36.599998 15.8
-24.6 37 15.8
-24.6 37.799999 15.8
-24.200001 37.799999 15.8
-23.799999 37.400002 15.4
-23.4 37.400002 15.8
-23.799999 38.200001 15.4
-23.799999 37.799999 15.8
-21.4 38.200001 13
-21 38.200001 14.2
-24.6 37.400002 16.200001
-24.200001 37.400002 16.200001
-24.6 37.799999 16.200001
-23.799999 37.400002 16.200001
-19.799999 38.200001 16.200001
-19.4 38.200001 16.200001
-19 37 13
-19 37.799999 15.4
-18.6 38.200001 15.4
-18.200001 38.200001 15.4
-19 38.200001 16.6
-18.6 38.200001 16.6
-19.799999 27 19.4
-19.4 27 19.4
-20.200001 27.4 19.4
-20.200001 27.799999 19.799999
-19.799999 27.4 19.4
-19.799999 27.4 19.799999
-19.4 27.4 19.799999
-19.799999 27.799999 19.799999
-20.200001 28.200001 19.4
-20.200001 28.6 19.4
-19.799999 28.6 19.4
-19.799999 28.6 19.799999
-19.799999 27.799999 20.200001
-19.4 27.799999 20.200001
-19.4 27.799999 20.6
-19.799999 28.200001 20.200001
-19.4 28.200001 20.200001
-19.4 28.6 20.200001
-19.4 28.200001 20.6
-21.4 29.799999 19.4
-16.6 26.200001 19.4
-16.6 26.200001 19.799999
-16.6 26.6 19.4
-16.200001 27 19.4
-16.200001 25.799999 20.200001
-16.200001 26.200001 20.200001
-16.200001 25.799999 20.6
-16.200001 26.6 20.200001
-19 27.4 19.4
-19 27.799999 19.4
-19 27.799999 19.799999
-18.6 28.200001 19.4
-19 28.6 19.4
-18.6 28.6 19.4
-19 28.200001 19.799999
-19 28.6 19.799999
-19 28.6 20.200001
-19 28.200001 20.6
-15.8 26.6 19.799999
-15.8 27 19.799999
-15 27 19.799999
-14.6 27 19.799999
-15.8 26.200001 20.200001
-15.8 25.799999 20.6
-15.8 26.200001 20.6
-15.4 26.200001 20.6
-14.6 26.200001 20.6
-15.4 27 20.200001
-15.8 26.6 20.6
-15.4 26.6 20.6
-14.6 26.6 20.200001
-14.6 27 20.200001
-15 26.6 20.6
-13 27 19.4
-14.2 26.6 20.6
-15 27.4 19.4
-13 27.799999 19.4
-13 28.200001 19.4
-15.4 25.799999 21.4
-14.6 25.799999 21.4
-15 26.200001 21.4
-14.6 26.200001 21.4
-15.4 25.799999 21.799999
-15 25.799999 21.799999
-15 25.799999 22.200001
-14.2 25.799999 21.4
-7.4000001 28.6 14.2
-6.5999999 28.200001 14.2
-8.6000004 28.6 14.6
-8.1999998 28.6 14.6
-7.8000002 28.6 14.6
-10.6 30.6 14.2
-10.2 30.6 14.2
-12.6 30.200001 14.6
-11.8 30.200001 14.6
-12.6 29.799999 15.4
-11.8 29.799999 15.4
-11 30.200001 14.6
-9.8000002 29.799999 14.6
-9.8000002 30.200001 14.6
-10.2 29.799999 15.4
-9 29.4 14.2
-9.3999996 29.799999 14.2
-9.3999996 29.4 14.6
-8.6000004 29 14.6
-9.3999996 29.799999 14.6
-7 27.799999 16.200001
-6.5999999 27.799999 16.200001
-6.5999999 27 17.799999
-9.3999996 27.799999 19
-12.6 29.799999 16.200001
-12.2 29.799999 16.200001
-12.2 30.200001 16.200001
-11 29.799999 16.200001
-11 30.200001 16.200001
-12.6 29.4 17.799999
-11.4 29.4 18.200001
-11 29.4 18.200001
-5 26.200001 14.2
-5 26.6 14.2
-5.4000001 27 14.2
-5.8000002 27.799999 14.2
-5.4000001 27.799999 14.2
-5 26.200001 14.6
-5.4000001 25.799999 15.8
-5 25.799999 15.8
-5.4000001 25.799999 16.200001
-5.4000001 26.200001 16.200001
-5.4000001 25.799999 16.6
-6.1999998 27.4 16.200001
-6.1999998 26.200001 17.799999
-6.1999998 25.799999 18.200001
-6.1999998 26.6 17.799999
-6.1999998 27 17.799999
-12.6 26.200001 20.200001
-11.8 26.200001 20.6
-12.6 27 20.6
-11 26.200001 20.6
-9.8000002 26.6 20.6
-12.2 28.6 19.799999
-12.6 27.4 20.6
-12.6 27.799999 20.6
-10.2 27.4 20.6
-10.2 27.799999 20.6
-10.2 28.6 20.200001
-12.2 27 21.4
-11.8 26.6 21.4
-11.4 26.6 21.4
-11.4 26.6 21.799999
-11.8 27 22.200001
-11.4 27 22.200001
-11 25.799999 21.4
-9.8000002 25.799999 21.4
-10.2 26.200001 21.4
-9.8000002 26.200001 21.4
-11 26.6 21.4
-10.2 25.799999 21.799999
-10.2 26.200001 21.799999
-10.2 25.799999 22.200001
-11 27 21.799999
-11 27 22.200001
-12.2 27.4 21.4
-11.8 27.799999 21.4
-11.8 28.200001 21.4
-11.4 27.799999 21.799999
-11.8 27.4 22.200001
-11.4 27.4 22.200001
-11 27.799999 21.4
-10.6 27.799999 21.4
-11 28.200001 21.4
-11 27.4 21.799999
-10.6 27.4 21.799999
-11 27.799999 21.799999
-11 27.4 22.200001
-8.6000004 27 19.4
-9 25.799999 20.6
-9 26.200001 20.6
-8.6000004 26.200001 20.6
-6.5999999 26.200001 19.4
-6.5999999 25.799999 19.799999
-6.5999999 26.6 19.4
-7 26.200001 20.200001
-8.1999998 25.799999 21.4
-9.3999996 25.799999 21.799999
-12.2 29 19.799999
-12.2 29 20.200001
-11.8 29 20.200001
-11.4 29 20.200001
-11.4 27 22.6
-25.4 38.599998 13.8
-24.200001 39 14.2
-23.799999 39 13.4
-23.4 38.599998 14.2
-25 38.599998 14.6
-24.6 38.599998 14.6
-24.200001 38.599998 14.6
-21.799999 38.599998 13
-21.4 39.799999 13.4
-21.799999 40.200001 13
-21.799999 40.599998 13
-21.4 40.599998 13
-21.4 40.200001 13.4
-21.4 40.599998 13.4
-21.4 41 13
-21.4 39.400002 14.6
-21 39 15.8
-21.4 40.200001 14.6
-21.4 40.599998 14.6
-20.6 41 15.4
-20.200001 41 15.4
-20.6 41 15.8
-19.799999 41.400002 15.4
-19.4 41.400002 15.4
-19.4 41.400002 15.8
-20.6 41.799999 13
-20.200001 42.200001 13
-21.799999 44.599998 13.4
-19.799999 41.799999 14.6
-19.799999 42.200001 14.6
-20.6 38.599998 16.200001
-20.200001 39 16.6
-19.799999 38.599998 16.200001
-20.200001 39.400002 16.6
-20.6 39.799999 16.6
-20.200001 39.799999 16.6
-19.799999 39 17.4
-19.4 39 17.4
-19.799999 39.400002 17.4
-21 40.200001 16.200001
-19.799999 41 16.200001
-19.799999 41.400002 16.200001
-19.4 41 16.6
-19.4 41.400002 16.6
-19.799999 40.200001 17.4
