# .PCD v0.7 - Point Cloud Data file format
VERSION 0.7
FIELDS x y z
SIZE 4 4 4
TYPE F F F
COUNT 1 1 1
WIDTH 134
HEIGHT 1
VIEWPOINT 0 0 0 1 0 0 0
POINTS 134
DATA ascii
-31.4 -57.799999 -0.60000002
-35.400002 -55.799999 -1.8
-36.200001 -55.400002 -0.60000002
-35.799999 -55 -0.60000002
-35.400002 -54.599998 -0.60000002
-35 -57 -1.4
-32.599998 -61.799999 1.4
-32.599998 -61 2.5999999
-32.200001 -60.599998 3
-32.200001 -59.400002 3
-32.200001 -59 3
-32.200001 -60.599998 3.4000001
-32.599998 -60.200001 3.4000001
-32.200001 -59.400002 3.4000001
-32.599998 -59.799999 4.1999998
-34.200001 -58.200001 3.4000001
-33.799999 -58.200001 3.4000001
-33 -59 3.8
-33.400002 -59.799999 5
-31 -62.599998 3
-31.799999 -59.400002 3
-31.4 -59 3
-30.200001 -62.599998 3.8
-29.799999 -62.599998 4.1999998
-29.799999 -62.599998 4.5999999
-31.799999 -61.799999 3.4000001
-31.4 -61.799999 3.4000001
-31.4 -61.799999 3.8
-31.799999 -61.400002 3.4000001
-31.4 -61 4.5999999
-31 -61.400002 4.1999998
-30.6 -61.400002 4.1999998
-31 -61.400002 4.5999999
-30.6 -61.400002 4.5999999
-31 -61 4.5999999
-29.799999 -62.200001 3.8
-30.200001 -61.799999 3.8
-29.4 -61.799999 3.8
-29.799999 -61.400002 3.4000001
-29.799999 -62.200001 4.1999998
-29 -61.799999 4.1999998
-29.4 -62.200001 4.5999999
-27.799999 -61 3.8
-27.799999 -61.400002 5
-27.799999 -61 5
-31.799999 -59.799999 3.4000001
-31.799999 -59.400002 3.4000001
-31.4 -59.400002 3.4000001
-31.4 -59.400002 3.8
-31 -59.400002 3.4000001
-31 -59.400002 3.8
-30.6 -59.400002 3.8
-31.799999 -60.599998 4.1999998
-31.4 -60.200001 4.1999998
-31.4 -60.599998 4.5999999
-31.4 -59.799999 4.1999998
-29.799999 -59.799999 3.4000001
-30.200001 -59.400002 4.5999999
-29.799999 -59.400002 4.5999999
-29.4 -59.400002 4.5999999
-29 -59.400002 4.5999999
-31 -59 3.4000001
-30.6 -59.400002 5
-31.4 -59 5
-29.799999 -59 5
-29.4 -59 5
-27.799999 -60.200001 3.8
-27.799999 -59.400002 3.4000001
-27.799999 -60.200001 4.5999999
-27.799999 -59.400002 4.1999998
-27.799999 -59.799999 4.5999999
-27.799999 -59 3.8
-28.200001 -60.599998 5
-26.200001 -60.200001 5
-25.799999 -60.200001 5
-25.799999 -59.799999 5
-26.200001 -59 5.8000002
-35.799999 -54.599998 1
-34.599998 -56.599998 0.2
-34.599998 -56.599998 0.60000002
-34.200001 -57.400002 1.4
-33.799999 -57.400002 1.4
-32.200001 -57.400002 0.60000002
-33.400002 -57.400002 1.4
-35 -55.799999 0.2
-35 -55.400002 0.2
-35 -55 0.60000002
-33.799999 -57.400002 1.8
-33.799999 -56.599998 1.8
-34.200001 -56.200001 2.2
-33 -57 2.2
-32.599998 -57 2.2
-32.200001 -57 2.2
-33.400002 -56.599998 2.2
-34.200001 -55.799999 2.2
-35.400002 -53.400002 1.4
-35.400002 -53 1.4
-35.400002 -52.200001 1
-35.799999 -53.400002 3
-35 -53.799999 0.2
-35 -53.799999 0.60000002
-33.799999 -52.200001 0.2
-34.599998 -54.200001 2.2
-34.200001 -53.799999 2.2
-34.200001 -53.400002 2.2
-33.799999 -53.400002 2.2
-34.200001 -54.200001 3
-33 -52.200001 1.8
-33.400002 -52.599998 2.2
-33 -51.799999 1.8
-33.799999 -55 3.4000001
-33.799999 -54.599998 3.8
-33.400002 -55.799999 3.8
-33.400002 -55 4.1999998
-33.400002 -54.599998 4.1999998
-33.799999 -54.200001 3.8
-33.400002 -53.799999 3.8
-32.599998 -53 3.8
-33 -53.799999 4.5999999
-32.599998 -52.200001 3.4000001
-32.599998 -51.799999 3.4000001
-33 -54.200001 5
-31.4 -57.400002 0.60000002
-25.4 -60.599998 5
-25 -60.599998 5
-25.4 -60.200001 5
-25 -60.200001 5
-24.6 -60.200001 5
-25.4 -59.400002 5
-25 -59.400002 5
-24.6 -59.400002 5
-32.200001 -50.599998 3.8
-31.799999 -49.400002 3.8
-31 -49 4.1999998
