# .PCD v0.7 - Point Cloud Data file format
VERSION 0.7
FIELDS x y z
SIZE 4 4 4
TYPE F F F
COUNT 1 1 1
WIDTH 163
HEIGHT 1
VIEWPOINT 0 0 0 1 0 0 0
POINTS 163
DATA ascii
21.799999 -77.800003 12.6
21.799999 -77.400002 12.6
25.4 -72.199997 7
25 -70.599998 7
25.4 -71 8.1999998
25 -70.599998 8.1999998
25.4 -70.599998 8.6000004
25 -75 10.6
25.4 -75 10.6
23 -76.199997 11.8
23.4 -76.199997 11.8
23.799999 -76.199997 11.8
23.799999 -76.199997 12.2
24.200001 -75.800003 11.8
24.6 -75.800003 11.8
24.200001 -76.199997 12.6
25 -75.800003 12.2
25.4 -75.800003 12.2
25.4 -69.800003 8.1999998
27.799999 -66.599998 5.8000002
28.200001 -67 5.8000002
28.200001 -75.400002 7.4000001
28.6 -75.400002 7.8000002
27 -74.599998 7.4000001
27 -74.599998 7.8000002
27 -74.199997 7.4000001
27 -73.800003 9
27 -73.800003 9.3999996
27.799999 -74.599998 8.1999998
27.4 -74.599998 9
28.200001 -75 9
27.4 -74.199997 9
29.4 -75.800003 7.4000001
29 -75.400002 7.4000001
29 -75.400002 7.8000002
29.799999 -75.800003 7.8000002
29.4 -75.400002 8.1999998
26.200001 -73 7.4000001
27 -73.400002 9
26.6 -73 9
27 -73.400002 9.3999996
26.6 -73 9.3999996
26.6 -72.599998 9.3999996
28.6 -74.199997 10.6
25.799999 -75.800003 11.8
26.200001 -75.800003 11.8
27 -75.800003 11.4
25.799999 -75.800003 12.2
26.200001 -75.800003 12.2
26.6 -75.800003 12.2
27 -75.800003 12.2
27.4 -75.800003 12.2
28.6 -74.599998 11.4
27.799999 -74.199997 11.4
27.799999 -73.800003 11.4
28.200001 -74.199997 11.4
28.6 -74.199997 11.4
28.200001 -74.199997 11.8
28.6 -74.199997 11.8
28.200001 -73.800003 11.8
28.6 -74.199997 12.2
28.200001 -73.800003 12.2
28.6 -73.800003 12.2
28.200001 -73.800003 12.6
29 -74.599998 11.4
29 -74.199997 11.8
29 -74.199997 12.2
26.200001 -71.800003 10.6
26.200001 -71.400002 10.6
27 -72.199997 11.4
27 -72.199997 11.8
27.4 -73.400002 11.4
27.799999 -73 11.8
27.4 -72.599998 11.4
27.799999 -73.400002 12.6
28.200001 -73.400002 12.2
27.4 -72.599998 12.2
27.799999 -72.199997 12.6
26.6 -71.800003 11.8
27 -71.800003 11.8
26.6 -71.400002 11.8
26.6 -71 11.8
27 -71.400002 12.2
27 -71.800003 12.6
27 -71.400002 12.6
27 -71 12.2
27 -71 12.6
27 -70.599998 12.6
27.4 -71.800003 12.2
27.799999 -71.800003 12.6
26.200001 -68.199997 6.5999999
25.799999 -68.599998 7
26.6 -68.199997 6.5999999
27 -67.800003 6.5999999
27.4 -67.400002 6.5999999
27.799999 -67.400002 6.5999999
25.799999 -69 8.6000004
26.200001 -68.599998 8.1999998
26.6 -68.199997 8.1999998
27 -68.199997 8.1999998
26.6 -68.599998 8.6000004
27.4 -68.199997 8.1999998
27.4 -68.199997 8.6000004
27.799999 -68.199997 8.6000004
28.200001 -68.199997 8.6000004
28.6 -68.199997 8.6000004
27.4 -67.800003 8.1999998
29 -68.199997 8.6000004
26.6 -66.199997 6.5999999
26.6 -65.800003 7.8000002
28.6 -66.599998 7.8000002
26.200001 -65.400002 7.8000002
27 -70.199997 12.2
27 -69.800003 12.2
27 -70.199997 12.6
27 -69.800003 12.6
27.4 -69 11.4
27.799999 -69 11.4
27.799999 -69.800003 12.6
28.200001 -69.800003 12.6
27.799999 -69.400002 12.2
27.4 -76.199997 13
27.799999 -76.199997 13
28.200001 -76.199997 13
28.6 -76.199997 13
28.200001 -73.800003 13
29 -76.199997 13
27.799999 -72.599998 13.4
27 -70.599998 13
27.799999 -71.800003 13
27.799999 -71.400002 13
27.799999 -71.400002 13.4
27.4 -71 13
27.4 -70.599998 13
27.4 -71 13.4
27.799999 -71 13.4
27.4 -70.599998 13.4
27.799999 -70.599998 13.4
27.799999 -71 13.8
27.799999 -70.599998 13.8
27.799999 -70.599998 14.2
26.6 -71.800003 15.8
27 -71.400002 15.8
27 -71 15.8
27 -70.599998 15.8
26.6 -73 16.200001
26.6 -72.599998 16.200001
26.6 -72.199997 16.200001
27 -72.199997 16.200001
27 -72.199997 16.6
26.6 -71.800003 16.200001
27 -71.800003 16.200001
27 -71.400002 16.200001
27 -71.800003 16.6
27 -71.400002 16.6
27 -71 16.200001
27.4 -70.199997 13
27.799999 -69.800003 13
27.4 -70.199997 13.4
27.799999 -70.199997 13.4
28.200001 -69.800003 13
28.200001 -69.400002 13
28.200001 -70.199997 13.8
