# .PCD v0.7 - Point Cloud Data file format
VERSION 0.7
FIELDS x y z
SIZE 4 4 4
TYPE F F F
COUNT 1 1 1
WIDTH 125
HEIGHT 1
VIEWPOINT 0 0 0 1 0 0 0
POINTS 125
DATA ascii
-54.599998 -75.400002 -0.60000002
-55 -71 -2.2
-55 -70.599998 -2.2
-59 -67.400002 -1.8
-57.799999 -67.400002 -1.8
-59.799999 -68.199997 -0.2
-59.799999 -67.800003 -0.60000002
-59.400002 -67.800003 -0.60000002
-58.200001 -67.400002 -1.4
-58.599998 -67.400002 -0.60000002
-59 -67.400002 -0.2
-57.799999 -67.400002 -0.2
-58.200001 -67 -1.8
-57.799999 -67 -1.8
-58.200001 -67 -1.4
-58.200001 -67 -0.60000002
-55 -70.199997 -2.2
-54.599998 -70.199997 -2.2
-55 -70.199997 -1.8
-55 -69.800003 -1.8
-55.400002 -69.400002 -1.8
-57 -67.400002 -1.8
-56.200001 -67.800003 -1.8
-56.599998 -67.400002 -1.8
-55.400002 -69.800003 -1.4
-55.799999 -69.400002 -1.4
-55.799999 -69 -1.4
-55.400002 -69.400002 -0.60000002
-55.799999 -69 -0.2
-57.400002 -67.400002 -1.4
-56.200001 -67.800003 -1.4
-56.200001 -67.800003 -1
-56.200001 -68.599998 -0.2
-56.200001 -68.199997 -0.2
-57.400002 -67.400002 -0.60000002
-57 -67.400002 -0.60000002
-57 -67.800003 -0.2
-56.599998 -67.800003 -0.60000002
-56.200001 -67.800003 -0.60000002
-55.799999 -68.599998 -0.60000002
-53.799999 -70.199997 -1
-53.400002 -70.199997 -1
-52.200001 -70.199997 -1
-51.799999 -70.199997 -1
-51.400002 -69.800003 -1
-51.400002 -69.800003 -0.60000002
-51.400002 -69.400002 -0.2
-55.799999 -65.800003 -1
-55.799999 -66.599998 -0.2
-55.799999 -65.400002 -1
-55.799999 -65 -1
-55.400002 -64.599998 -1
-54.599998 -64.199997 -1
-55.400002 -65.400002 -0.2
-55 -65 -0.2
-54.200001 -64.199997 -0.2
-50.200001 -68.599998 -1
-55 -73.800003 1.8
-53.799999 -76.599998 0.2
-53.799999 -76.199997 0.2
-53.400002 -76.199997 1.4
-53.799999 -74.599998 0.60000002
-53.799999 -74.199997 0.2
-53.799999 -73.800003 0.2
-53.799999 -74.199997 0.60000002
-54.599998 -73.400002 1.4
-55.400002 -73.400002 2.2
-55 -73.400002 2.2
-55 -72.599998 2.2
-54.599998 -71.400002 2.2
-54.599998 -71 2.2
-53.799999 -71.400002 1.4
-54.200001 -71.400002 2.2
-54.200001 -71 2.2
-54.599998 -73.400002 3.8
-54.599998 -73 3.8
-55 -73.400002 4.1999998
-55 -73 4.1999998
-55 -72.599998 4.1999998
-55 -72.199997 4.1999998
-54.599998 -72.199997 4.1999998
-54.599998 -71.800003 4.1999998
-54.599998 -71.400002 4.1999998
-54.599998 -71 4.1999998
-54.599998 -71 4.5999999
-54.599998 -70.599998 4.5999999
-55.400002 -71.400002 5
-54.200001 -72.199997 3.8
-54.200001 -71.800003 3.8
-54.200001 -71.400002 3.8
-54.200001 -71 3.8
-54.200001 -70.599998 3.8
-58.599998 -67.800003 0.2
-58.200001 -67.800003 0.2
-57.799999 -67.800003 0.2
-58.200001 -67.400002 0.2
-56.200001 -68.599998 0.2
-57.400002 -67.800003 0.2
-55.400002 -69 2.2
-53.799999 -69.400002 1.4
-52.200001 -69.400002 1
-54.200001 -69.800003 1.8
-53.400002 -69.400002 1.8
-53.400002 -69 2.5999999
-53 -69 2.5999999
-52.599998 -69 1.8
-52.200001 -69 1.8
-51.799999 -69 1.8
-51.799999 -69 2.5999999
-54.200001 -68.599998 2.5999999
-51.400002 -68.599998 3
-55.400002 -66.599998 1
-55 -65 0.2
-55.400002 -65.400002 1
-54.599998 -64.599998 1
-54.200001 -70.199997 3.8
-54.200001 -69.800003 3.8
-53.400002 -68.599998 3.8
-53 -68.599998 3.8
-52.599998 -68.599998 3.4000001
-52.200001 -68.599998 3.4000001
-52.599998 -68.599998 3.8
-52.599998 -68.599998 4.5999999
-51 -69 1
-51 -68.599998 1
