# .PCD v0.7 - Point Cloud Data file format
VERSION 0.7
FIELDS x y z
SIZE 4 4 4
TYPE F F F
COUNT 1 1 1
WIDTH 271
HEIGHT 1
VIEWPOINT 0 0 0 1 0 0 0
POINTS 271
DATA ascii
70.199997 69.400002 -6.5999999
73 67 -9
73.400002 67 -9
74.199997 66.599998 -9
73.800003 67 -9
74.599998 66.599998 -9
74.599998 67 -8.1999998
75.400002 66.599998 -9
73.800003 67 -7
74.199997 67 -7
73.800003 67 -6.5999999
74.199997 67 -6.5999999
74.599998 66.599998 -7
74.599998 66.599998 -6.5999999
75 66.599998 -6.5999999
74.599998 67 -6.5999999
71.800003 68.599998 -9
72.599998 67.400002 -9
73 67.400002 -9
73 67.800003 -9
72.199997 68.199997 -9
73 67.800003 -8.6000004
72.599998 68.199997 -8.6000004
72.199997 68.599998 -8.6000004
71.800003 69 -9
71.800003 69.400002 -9
71.800003 69 -8.6000004
71.800003 69.400002 -8.6000004
72.199997 69 -8.6000004
71.800003 68.599998 -6.5999999
72.599998 67.800003 -7
72.599998 67.800003 -6.5999999
73.400002 67.400002 -7
73 67.800003 -7
73.400002 67.400002 -6.5999999
73 67.800003 -6.5999999
73.400002 67.800003 -6.5999999
72.199997 68.199997 -7
72.599998 68.199997 -7
72.199997 68.199997 -6.5999999
72.599998 68.199997 -6.5999999
72.199997 68.599998 -6.5999999
73 68.199997 -6.5999999
70.599998 69 -6.5999999
71 69 -6.5999999
71.400002 69 -6.5999999
71.800003 69 -6.5999999
76.599998 67.400002 -8.6000004
73.800003 67.400002 -6.5999999
74.199997 67.400002 -6.5999999
69.800003 73.400002 -6.5999999
70.199997 73.800003 -7
70.199997 73.800003 -6.5999999
70.599998 73.800003 -7
70.599998 73.800003 -6.5999999
70.599998 74.199997 -6.5999999
71 74.199997 -6.5999999
69.800003 69.800003 -5.8000002
70.199997 69.400002 -5.4000001
69.800003 69.800003 -5.4000001
69.800003 70.199997 -5.4000001
70.199997 70.199997 -5.4000001
75 66.599998 -6.1999998
75.400002 66.599998 -5.8000002
75.400002 67 -5.8000002
75.400002 67 -5.4000001
75.800003 67 -5.4000001
76.199997 66.599998 -5.4000001
76.199997 67 -5
76.599998 67 -5
72.199997 68.599998 -6.1999998
73 68.199997 -6.1999998
71 69 -6.1999998
70.599998 69.400002 -6.1999998
71 69.400002 -5.8000002
71.400002 69 -6.1999998
71.400002 69.400002 -5.8000002
71.800003 69.400002 -5.8000002
71.400002 69.400002 -5.4000001
70.599998 69.800003 -5.4000001
71 69.800003 -5.4000001
70.599998 70.199997 -5.4000001
71 70.199997 -5.4000001
71.400002 69.800003 -5.4000001
71.800003 69.800003 -5.4000001
71.800003 70.199997 -5.4000001
72.199997 69 -6.1999998
72.199997 69.400002 -5.8000002
72.199997 69.400002 -5.4000001
72.199997 70.199997 -5.4000001
73.800003 67.800003 -5.8000002
74.199997 67.800003 -5.8000002
74.599998 67.400002 -5.8000002
75 67.400002 -5.8000002
75 67.400002 -5.4000001
75 67.800003 -5.4000001
75 68.199997 -5
75 68.599998 -5
75.400002 67.400002 -5.4000001
75.400002 67.800003 -5
75.800003 67.800003 -5
76.199997 67.800003 -5
75 68.599998 -4.5999999
75.800003 68.199997 -4.5999999
75.400002 68.599998 -4.5999999
75.800003 68.599998 -4.5999999
76.199997 68.199997 -4.5999999
76.599998 68.199997 -4.5999999
76.199997 68.599998 -4.5999999
76.599998 68.599998 -4.5999999
74.599998 69 -4.5999999
75 69 -4.5999999
75.400002 69 -4.5999999
76.599998 69 -4.5999999
69.400002 70.599998 -5.8000002
69.800003 70.599998 -5.8000002
69.800003 71 -5.8000002
69.800003 70.599998 -5.4000001
70.199997 70.599998 -5.4000001
69.800003 71 -5.4000001
70.199997 73 -6.1999998
70.199997 73.400002 -6.1999998
71 70.599998 -5.4000001
70.599998 71 -5.4000001
71.400002 70.599998 -5.4000001
71.800003 70.599998 -5.4000001
71.400002 71 -5.4000001
71.400002 71 -5
71.800003 71 -5
71.400002 71.400002 -5.4000001
71.800003 71.400002 -5
72.199997 70.599998 -5.4000001
72.199997 70.599998 -5
72.199997 71 -5
72.199997 71.400002 -5
72.199997 71.800003 -5
70.599998 72.599998 -5.8000002
70.599998 73 -6.1999998
70.599998 73.400002 -6.1999998
71 73.400002 -6.1999998
71 73 -5.8000002
71 73.400002 -5.8000002
71.400002 73 -5.8000002
71.400002 73.400002 -5.8000002
71.800003 73.400002 -5.8000002
71.800003 72.599998 -5.4000001
71.400002 73 -5.4000001
71.800003 73 -5.4000001
72.199997 72.599998 -5.4000001
72.199997 73 -5.4000001
70.599998 73.800003 -6.1999998
71 73.800003 -6.1999998
71.400002 74.199997 -6.1999998
71.800003 74.199997 -6.1999998
71.400002 73.800003 -5.8000002
72.199997 73.800003 -5.8000002
72.199997 74.599998 -6.1999998
76.599998 74.199997 -5
80.599998 73.400002 -7
81.400002 73.400002 -7
81.800003 73.800003 -7
82.199997 73.800003 -7
81.800003 74.199997 -6.5999999
82.599998 74.199997 -6.5999999
83 74.199997 -6.5999999
82.599998 74.599998 -6.5999999
83.400002 74.199997 -7
77 67 -5.8000002
77.800003 67 -5.8000002
77 67 -5
77.400002 67 -5
77.800003 67 -5
77.800003 67.400002 -5.4000001
78.199997 67.400002 -5.4000001
78.199997 67.800003 -5
78.599998 67.400002 -5.8000002
78.599998 67.800003 -5.8000002
79.400002 68.599998 -5.8000002
78.599998 67.400002 -5.4000001
78.599998 67.800003 -5.4000001
79 67.800003 -5.4000001
78.599998 67.800003 -5
78.599998 68.199997 -5
79 68.599998 -5
79.400002 68.599998 -5.4000001
79.800003 68.599998 -5.4000001
79.400002 68.599998 -5
79.400002 69.400002 -5
79.800003 69.800003 -5
77.400002 67.400002 -4.5999999
77 67.800003 -4.5999999
77.400002 67.800003 -4.5999999
77.800003 67.800003 -4.5999999
77 68.199997 -4.5999999
77.400002 68.199997 -4.5999999
77 68.599998 -4.5999999
78.199997 68.199997 -4.5999999
78.599998 68.199997 -4.5999999
77.400002 69 -4.5999999
77 69.400002 -4.5999999
77.400002 69.400002 -4.5999999
77.800003 69 -4.5999999
77.800003 69.400002 -4.5999999
78.199997 69.400002 -4.5999999
77.400002 69.800003 -4.5999999
77.800003 69.800003 -4.5999999
79.400002 69 -4.5999999
79.400002 69.400002 -4.5999999
79 70.199997 -4.5999999
79.400002 69.800003 -4.5999999
79.800003 69.800003 -4.5999999
79.400002 70.199997 -4.5999999
79.800003 70.199997 -4.5999999
80.199997 69.400002 -5.4000001
79.800003 71 -5
79.800003 71.800003 -5.4000001
79.400002 71.400002 -5
79.800003 71.400002 -5
79.800003 73 -6.1999998
79 72.599998 -5
79.400002 72.199997 -5.4000001
79.800003 72.199997 -5.4000001
79.400002 72.199997 -5
79.400002 72.599998 -5
77 71.400002 -4.1999998
77.400002 71.400002 -4.1999998
77 71.800003 -4.1999998
77.400002 71.800003 -4.1999998
77.800003 71.400002 -4.1999998
77.800003 71.800003 -4.1999998
78.199997 71.800003 -4.1999998
78.599998 70.599998 -4.5999999
79 70.599998 -4.5999999
78.599998 71 -4.5999999
79 71 -4.5999999
79.400002 70.599998 -4.5999999
79.800003 71 -4.5999999
78.599998 71.400002 -4.5999999
79 71.800003 -4.5999999
79.400002 71.400002 -4.5999999
79.400002 71.800003 -4.5999999
77 72.599998 -4.1999998
77.400002 72.599998 -4.1999998
78.599998 72.199997 -4.5999999
79 72.199997 -4.5999999
78.599998 72.599998 -4.5999999
79 72.599998 -4.5999999
80.199997 71 -5
80.199997 71.400002 -5.4000001
80.199997 72.199997 -6.1999998
80.199997 72.599998 -6.1999998
80.199997 72.199997 -5.8000002
80.199997 70.599998 -4.5999999
80.199997 71 -4.5999999
79.800003 73.800003 -6.1999998
80.199997 73.800003 -6.1999998
80.599998 73.800003 -6.1999998
81.800003 74.199997 -6.1999998
82.199997 74.199997 -6.1999998
82.199997 74.599998 -6.1999998
82.599998 75 -5.8000002
83 75 -5.8000002
82.199997 75 -5.4000001
81.400002 75.400002 -5
81.800003 75.400002 -5
82.599998 75.400002 -5
81.400002 75.400002 -4.5999999
81.800003 75.400002 -4.5999999
82.599998 75.400002 -4.5999999
83 75.400002 -4.5999999
83.400002 75.400002 -4.5999999
