# .PCD v0.7 - Point Cloud Data file format
VERSION 0.7
FIELDS x y z
SIZE 4 4 4
TYPE F F F
COUNT 1 1 1
WIDTH 226
HEIGHT 1
VIEWPOINT 0 0 0 1 0 0 0
POINTS 226
DATA ascii
-17.4 -25.799999 15.4
-16.6 -26.200001 15.4
-16.6 -25.799999 15.8
-16.200001 -25.799999 17.4
-15.8 -25.799999 17.4
-18.200001 -25.4 15.4
-18.6 -21.799999 15.8
-18.6 -21.4 15.8
-17.4 -20.200001 15.8
-16.6 -20.200001 15.8
-16.200001 -20.200001 15.8
-17.4 -19.799999 15.4
-17 -19.799999 15.4
-15.8 -20.200001 15.8
-14.6 -20.200001 15.8
-18.200001 -24.6 17.4
-18.200001 -23 17.4
-18.200001 -22.6 17.4
-17.4 -25 17.799999
-16.200001 -25.4 17.799999
-16.200001 -25 19
-18.200001 -22.6 17.799999
-17.799999 -23.799999 19
-17.799999 -23.4 19
-15.8 -25.4 19
-15.8 -25 19
-15.4 -25 19
-18.200001 -21.4 16.200001
-18.6 -22.200001 17.4
-18.200001 -22.200001 17.4
-18.200001 -21.799999 17.4
-18.200001 -21.4 17.4
-17 -20.200001 16.200001
-16.6 -20.200001 16.200001
-17 -20.6 17.4
-16.6 -20.6 17.4
-18.200001 -22.200001 17.799999
-17.799999 -22.200001 19
-17.799999 -21.799999 19
-17 -21 19
-16.200001 -21 19
-14.2 -21 17.4
-15.8 -20.200001 16.200001
-15.4 -20.200001 16.200001
-14.6 -20.200001 16.200001
-15.4 -20.6 17.4
-15.4 -20.200001 17.4
-15 -20.6 17.4
-15 -20.200001 17.4
-13.4 -19.4 16.6
-15.8 -21 19
-15 -21 19
-13.4 -21.799999 17.799999
-15.8 -20.6 17.799999
-15.8 -20.6 19
-15.4 -20.6 19
-14.2 -19 15.4
-14.2 -18.6 15.8
-13 -19 15.8
-15.8 -15.8 15.4
-15.4 -15.4 15.8
-15.4 -15 15.4
-14.6 -13.8 15.4
-13.8 -19 16.6
-13 -18.6 17.799999
-13 -18.6 18.200001
-13.8 -18.200001 17.799999
-13.8 -18.200001 18.200001
-14.2 -17.799999 18.200001
-13.4 -18.200001 19
-15 -17 18.200001
-15 -16.6 18.200001
-14.6 -16.200001 19
-15 -14.6 16.6
-14.6 -14.6 16.6
-14.6 -14.6 17.4
-15 -15.4 18.200001
-14.6 -15.8 19
-14.6 -15.4 19
-13 -14.2 18.200001
-17.4 -24.6 19.4
-17 -24.200001 20.200001
-17 -24.200001 20.6
-16.6 -24.6 20.6
-17.799999 -22.6 19.799999
-16.6 -23.799999 21.4
-16.200001 -23.799999 21.4
-16.6 -23.4 21.799999
-16.200001 -23.799999 22.200001
-16.6 -23.4 22.200001
-16.6 -22.6 21.799999
-16.6 -23 22.200001
-16.200001 -23 22.200001
-16.6 -22.6 22.200001
-15.8 -25 19.799999
-15.4 -24.6 19.799999
-15.4 -24.6 20.200001
-15.8 -24.6 20.6
-15 -24.200001 20.6
-14.6 -24.200001 20.6
-14.6 -23.799999 20.6
-13.8 -23 19.799999
-15.8 -24.200001 21.4
-15.8 -23.799999 21.4
-15 -23.799999 21.4
-15 -23.4 21.4
-14.6 -23.4 21.4
-14.6 -23 21.4
-15.4 -23.799999 21.799999
-15.4 -23.4 21.799999
-15.8 -23.799999 22.200001
-15.8 -23.4 22.200001
-15 -23.4 21.799999
-15.4 -23 22.200001
-15.4 -22.6 22.200001
-15 -23 21.799999
-15 -22.6 21.799999
-15 -23 22.200001
-15 -22.6 22.200001
-17.799999 -22.200001 19.4
-17.799999 -22.200001 19.799999
-17 -21 19.4
-17 -21.4 19.799999
-17 -21.799999 20.6
-16.6 -21.4 20.6
-16.6 -21.799999 21.4
-16.200001 -21.799999 21.4
-16.6 -22.200001 21.799999
-16.200001 -21.799999 21.799999
-15.4 -21 19.799999
-14.6 -21.4 19.799999
-15.4 -21 20.6
-14.6 -21.4 20.200001
-15 -21.4 20.6
-13.8 -22.200001 19.4
-15.8 -21.799999 21.4
-15.4 -21.799999 21.4
-14.6 -22.200001 21.4
-15.8 -21.799999 21.799999
-15.4 -22.200001 22.200001
-15 -22.200001 21.799999
-16.200001 -23.4 22.6
-16.200001 -23.4 23
-16.200001 -23 22.6
-16.200001 -22.6 22.6
-16.200001 -23 23
-15.8 -23.4 22.6
-15.8 -22.6 22.6
-15.4 -22.6 22.6
-15.4 -23 23
-13.8 -17.799999 19.4
-14.6 -16.200001 19.4
-13.8 -17 20.6
-14.2 -16.200001 20.6
-13.8 -16.200001 20.6
-13 -17.4 21.4
-13.4 -16.6 21.4
-13.4 -16.200001 21.4
-13 -17 21.799999
-13.4 -16.6 21.799999
-13 -16.6 21.799999
-13.4 -16.200001 21.799999
-13 -16.200001 21.799999
-13 -16.200001 22.200001
-14.6 -15.8 19.4
-13.8 -15 19.799999
-13.4 -14.6 19.4
-13 -14.6 19.4
-13.8 -15.4 20.6
-13.8 -15 20.200001
-13 -14.6 20.200001
-13 -16.200001 22.6
-11.8 -19.4 15.4
-12.6 -19.4 16.6
-12.6 -19 15.8
-12.2 -19 15.8
-10.2 -18.200001 15.4
-9.8000002 -17 15.8
-9.8000002 -16.6 15.8
-9.8000002 -14.6 15.4
-9.8000002 -15 15.8
-11.4 -18.6 16.6
-12.2 -18.6 17.4
-11.8 -18.6 17.4
-11 -18.6 16.6
-10.2 -18.200001 16.6
-10.2 -17.799999 16.6
-12.6 -18.6 17.799999
-12.2 -18.6 17.799999
-11.8 -18.6 17.799999
-11.4 -18.200001 17.799999
-11.8 -18.200001 19
-11.4 -18.200001 19
-10.6 -17.799999 18.200001
-10.6 -17.4 17.799999
-10.6 -16.200001 17.799999
-10.2 -16.200001 17.799999
-10.2 -16.6 18.200001
-10.2 -16.200001 18.200001
-10.6 -14.6 17.4
-11 -14.6 17.799999
-11 -15 19
-12.6 -14.2 19
-12.2 -14.2 19
-12.6 -17.4 21.4
-12.2 -17 21.4
-11.8 -16.6 21.4
-11.4 -16.6 21.4
-12.6 -17 21.799999
-12.2 -17 21.799999
-12.2 -16.6 22.200001
-12.2 -16.200001 22.200001
-12.6 -14.6 19.4
-11.8 -14.6 19.4
-12.6 -15 20.6
-11.4 -15 20.200001
-11.8 -14.6 20.200001
-11 -15 19.4
-11.8 -15.8 21.4
-12.6 -15.8 21.799999
-12.2 -15.4 21.799999
-12.6 -15.8 22.200001
-12.2 -15.8 22.200001
-12.6 -16.6 22.6
-12.6 -16.200001 22.6
-12.2 -16.200001 22.6
