# .PCD v0.7 - Point Cloud Data file format
VERSION 0.7
FIELDS x y z
SIZE 4 4 4
TYPE F F F
COUNT 1 1 1
WIDTH 171
HEIGHT 1
VIEWPOINT 0 0 0 1 0 0 0
POINTS 171
DATA ascii
-43.400002 -57.400002 -2.5999999
-41.799999 -56.200001 -2.5999999
-42.599998 -57.400002 -1.8
-42.200001 -57 -1
-41.799999 -56.599998 -1
-42.599998 -57.400002 -0.60000002
-41.400002 -56.200001 -1.8
-41.400002 -55.799999 -2.5999999
-41 -55.799999 -2.5999999
-41 -55.400002 -2.5999999
-41 -55.799999 -2.2
-40.200001 -55.799999 -2.2
-40.599998 -56.200001 -0.2
-40.599998 -55.799999 -1
-40.200001 -55.400002 -0.2
-40.599998 -55 -0.60000002
-40.200001 -55 -0.60000002
-39.400002 -55.799999 -1
-39.799999 -55.400002 -0.60000002
-41.400002 -54.200001 -0.60000002
-41.400002 -53.799999 -0.60000002
-42.599998 -58.200001 1.8
-42.599998 -58.200001 2.2
-42.599998 -59 4.1999998
-42.599998 -58.599998 4.1999998
-42.599998 -59 4.5999999
-42.200001 -58.599998 4.5999999
-42.200001 -58.200001 4.1999998
-42.200001 -57.799999 4.1999998
-41.799999 -57.799999 4.1999998
-41.799999 -58.200001 4.5999999
-49.799999 -51.400002 3.8
-48.599998 -52.200001 3.8
-48.200001 -52.200001 3.8
-48.200001 -52.200001 5
-41.799999 -57.400002 1.4
-41 -56.599998 0.60000002
-40.200001 -56.599998 0.60000002
-40.200001 -56.599998 1.4
-41.400002 -57.400002 1.8
-41.400002 -57.400002 2.2
-43.400002 -53 1
-42.599998 -53.400002 1
-42.599998 -53.400002 1.4
-42.200001 -53.400002 1
-43.400002 -52.599998 1
-43.799999 -52.200001 1
-43.400002 -52.200001 1
-44.200001 -51.400002 1
-43.799999 -51.799999 1
-43.799999 -51.400002 1
-43.799999 -51.799999 1.4
-43.799999 -51.400002 1.4
-43 -52.599998 1.4
-43 -52.200001 1.4
-43 -53 1.8
-42.599998 -53 2.2
-42.599998 -53 2.5999999
-43.400002 -52.200001 1.8
-43.799999 -51.400002 1.8
-43.400002 -51.799999 2.5999999
-43.400002 -51.400002 3
-42.599998 -52.599998 2.2
-43 -52.200001 2.2
-43 -52.599998 2.5999999
-42.599998 -52.599998 3
-43 -52.200001 3
-43 -51.799999 3
-41.400002 -57.400002 4.1999998
-41 -57.400002 4.5999999
-41 -57 4.5999999
-40.599998 -57.400002 5
-40.599998 -57 5
-43 -51.799999 3.8
-43 -51.400002 3.8
-48.200001 -51.400002 7.4000001
-43.400002 -54.599998 7.4000001
-43 -54.599998 7.4000001
-44.200001 -53.799999 6.5999999
-43.400002 -54.200001 7.4000001
-44.599998 -53 7.4000001
-41.799999 -54.200001 7.8000002
-41.799999 -53.799999 7.8000002
-44.599998 -52.599998 6.5999999
-44.200001 -52.599998 6.5999999
-44.200001 -52.200001 6.5999999
-41.400002 -53.799999 7.8000002
-51 -49.799999 3
-51 -49.400002 3
-51 -49 3
-50.599998 -49.799999 3.8
-51 -49.400002 3.4000001
-50.599998 -49 3.8
-50.200001 -50.599998 5
-50.200001 -50.200001 5
-50.200001 -48.599998 5
-45 -48.200001 5
-49.799999 -47 5
-46.599998 -47 5.8000002
-43.799999 -50.200001 1.8
-43.799999 -50.599998 2.5999999
-43.799999 -50.599998 3
-43.400002 -50.599998 3.4000001
-43.400002 -51 3.8
-43.400002 -50.200001 3.4000001
-43 -51 3.8
-43 -50.599998 3.8
-43 -51 5
-44.599998 -49 5
-49 -51 7.4000001
-49.799999 -49 7.8000002
-49.400002 -48.200001 7.8000002
-48.599998 -50.599998 8.1999998
-49 -49.799999 9
-49.799999 -49 8.6000004
-49.400002 -49.400002 9
-49 -49.400002 9
-49 -49 9
-47.400002 -51 7.4000001
-47 -51 7.4000001
-45.400002 -49.400002 6.5999999
-45.400002 -49.400002 7
-47.400002 -50.599998 8.6000004
-47.400002 -50.599998 9
-46.599998 -49.799999 9
-46.200001 -50.200001 8.6000004
-46.200001 -49.799999 8.6000004
-46.599998 -49.400002 9
-46.599998 -49 9
-46.599998 -48.599998 9
-46.599998 -48.200001 9
-49.400002 -47.400002 6.5999999
-49 -47.799999 8.1999998
-48.200001 -47.400002 8.1999998
-48.200001 -47.400002 8.6000004
-47 -47 7
-46.599998 -47 7
-46.599998 -47.400002 7.4000001
-47.400002 -47 7.4000001
-46.200001 -47.400002 7.4000001
-47.400002 -47.400002 8.1999998
-47.799999 -47.799999 8.6000004
-47.799999 -47.400002 8.6000004
-43.799999 -50.599998 6.5999999
-43.400002 -50.599998 7.4000001
-43.400002 -50.200001 7.4000001
-43.400002 -49.799999 7.8000002
-43.799999 -49.400002 7.4000001
-43.400002 -49.400002 7.4000001
-43.799999 -49 7.4000001
-43.400002 -49 7.4000001
-43.400002 -49.400002 7.8000002
-43.400002 -48.599998 7.8000002
-43.400002 -51 8.1999998
-43.400002 -50.599998 8.1999998
-43 -50.599998 8.1999998
-43 -50.599998 8.6000004
-43 -48.200001 8.1999998
-43.400002 -47.799999 7
-43.400002 -47.400002 7
-43 -47 7
-43 -47.400002 7.4000001
-43 -47.799999 7.8000002
-43 -47.400002 7.8000002
-43 -47 7.4000001
-42.599998 -47 7.4000001
-41.799999 -46.599998 7.8000002
-42.599998 -47.799999 8.1999998
-41.799999 -46.599998 8.6000004
-41.400002 -46.599998 7.8000002
-41.400002 -46.200001 7.8000002
