# .PCD v0.7 - Point Cloud Data file format
VERSION 0.7
FIELDS x y z
SIZE 4 4 4
TYPE F F F
COUNT 1 1 1
WIDTH 1993
HEIGHT 1
VIEWPOINT 0 0 0 1 0 0 0
POINTS 1993
DATA ascii
-58.599998 59 -0.2
-57.799999 58.599998 -0.60000002
-58.200001 59 -0.60000002
-58.200001 58.599998 -0.2
-57.799999 58.599998 -0.2
-58.200001 59 -0.2
-63.799999 61.400002 -3
-57.400002 58.200001 -0.2
-57 58.200001 -0.2
-57.400002 58.599998 -0.60000002
-57 58.599998 -0.60000002
-57.400002 58.599998 -0.2
-56.599998 58.599998 -0.60000002
-56.200001 58.599998 -0.60000002
-56.599998 58.599998 -0.2
-56.200001 58.599998 -0.2
-55.799999 59 -0.60000002
-55.400002 59 -0.60000002
-55.799999 59 -0.2
-55.400002 59 -0.2
-55 59 -0.2
-55 59.400002 -0.60000002
-54.599998 59.799999 -0.60000002
-55 59.400002 -0.2
-54.599998 59.400002 -0.2
-54.599998 59.799999 -0.2
-54.200001 59.799999 -0.2
-53.799999 59.799999 -0.2
-53.400002 59.799999 -0.2
-53 59.799999 -0.2
-54.200001 60.200001 -0.60000002
-53.799999 60.200001 -0.60000002
-54.200001 60.200001 -0.2
-53.799999 60.200001 -0.2
-53.400002 60.200001 -0.60000002
-53.400002 60.200001 -0.2
-53 60.200001 -0.2
-52.599998 59.799999 -0.2
-52.200001 59.799999 -0.2
-51.799999 59.799999 -0.2
-52.599998 60.200001 -0.2
-52.200001 60.200001 -0.2
-60.599998 72.599998 -6.5999999
-60.599998 73.400002 -7
-61 74.599998 -8.1999998
-61 76.599998 -9.3999996
-60.599998 75.400002 -8.1999998
-60.599998 76.199997 -8.6000004
-60.200001 76.599998 -8.1999998
-60.599998 74.199997 -7.4000001
-60.599998 75 -7.8000002
-60.200001 75 -7.4000001
-60.200001 74.599998 -7
-59.799999 74.599998 -6.5999999
-60.200001 75.800003 -7.8000002
-59.799999 75.400002 -7
-59.400002 75.400002 -6.5999999
-60.200001 73 -6.1999998
-59.799999 73 -5.8000002
-59.799999 73.800003 -6.1999998
-59.400002 74.199997 -5.8000002
-87.800003 77.800003 -21
-76.199997 84.599998 -15.4
-60.599998 77.400002 -9.3999996
-60.599998 77 -9
-60.200001 77.800003 -9
-59.799999 78.199997 -9
-60.200001 77 -8.6000004
-60.200001 77.400002 -8.6000004
-59.799999 77.400002 -8.1999998
-59.799999 77.800003 -8.6000004
-59.400002 78.199997 -8.6000004
-59.400002 77.800003 -8.1999998
-59.400002 79 -9.3999996
-59.400002 78.599998 -9
-59 79 -9
-58.200001 79.800003 -9.3999996
-59 78.599998 -8.6000004
-58.599998 78.599998 -8.1999998
-58.200001 79 -8.6000004
-59.400002 77.400002 -7.4000001
-58.599998 78.199997 -7.8000002
-57.400002 79 -7.8000002
-55.799999 82.199997 -9
-55 82.599998 -8.6000004
-54.599998 83 -8.1999998
-55 81.800003 -7.8000002
-63.799999 83.400002 -11
-61 84.199997 -10.6
-61 84.599998 -10.6
-61 85 -10.6
-61.400002 85.400002 -10.6
-61 85.400002 -10.6
-60.599998 84.599998 -10.6
-60.200001 84.599998 -10.6
-59.400002 84.599998 -11
-59 84.599998 -11
-60.599998 85 -10.6
-60.200001 85 -10.6
-60.599998 85.400002 -10.6
-59.400002 85 -11
-59.799999 85 -10.6
-59.799999 85.400002 -10.6
-59.400002 85.400002 -10.6
-60.200001 85.800003 -10.6
-59.799999 85.800003 -10.6
-59.400002 85.800003 -10.6
-59 85 -11
-58.599998 85 -11
-59 85.400002 -11
-58.599998 85.400002 -11
-58.200001 85.400002 -11
-59 85.800003 -11
-58.599998 85.800003 -11
-59 86.199997 -11
-58.599998 86.199997 -11
-58.200001 85.800003 -11
-60.200001 87 -11
-59.799999 86.599998 -11
-59.400002 86.599998 -11
-59.799999 87 -11
-59.400002 87 -11
-59 86.599998 -11
-53.400002 85 -9.8000002
-54.200001 84.199997 -9.3999996
-54.200001 83.400002 -8.1999998
-53.799999 84.199997 -8.6000004
-53.400002 84.199997 -8.6000004
-53.400002 84.199997 -8.1999998
-53 84.599998 -8.1999998
-52.599998 85.400002 -8.6000004
-53.799999 83.400002 -7.4000001
-52.200001 84.599998 -7
-51.799999 85.800003 -7.8000002
-51.400002 87 -9.3999996
-54.599998 77.800003 -5.4000001
-54.200001 77.800003 -5
-52.200001 79.400002 -4.1999998
-51.400002 78.599998 -3.4000001
-49.799999 72.199997 -3
-49.799999 72.599998 -3
-49.799999 73 -3
-49.799999 73.400002 -3
-49.400002 72.199997 -3
-49.400002 72.599998 -3
-49.400002 72.599998 -2.5999999
-49 72.599998 -2.5999999
-48.599998 72.599998 -2.5999999
-49.400002 73 -3
-49.400002 73.400002 -3
-49 73.400002 -3
-49 73 -2.5999999
-48.599998 73.400002 -3
-48.200001 73.400002 -3
-48.599998 73 -2.5999999
-48.599998 73.400002 -2.5999999
-49 73.800003 -3
-48.599998 73.800003 -3
-48.200001 73.800003 -3
-47.799999 73.800003 -3
-20.6 73.400002 -0.2
-23 75.800003 -0.60000002
-22.6 75.800003 -0.60000002
-23 76.199997 -0.60000002
-22.6 76.199997 -0.60000002
-21.799999 75.800003 -1
-21.799999 76.199997 -1
-22.200001 76.599998 -1
-21.799999 76.599998 -1
-22.200001 75.800003 -0.60000002
-22.200001 76.199997 -0.60000002
-13.4 73.400002 -3.4000001
-13 73.400002 -3.4000001
-17.4 73.400002 -1.8
-17 73.400002 -1.8
-16.6 73.400002 -1.8
-16.200001 73.400002 -1.8
-19 73.400002 -1
-18.6 73 -0.2
-17.799999 73 -0.60000002
-17.4 73 -0.60000002
-17 73 -0.60000002
-16.200001 73 -0.60000002
-15.8 73.400002 -2.2
-13.8 73 -1.8
-13.4 73 -2.2
-13 73 -2.2
-15.4 73 -1.4
-15.8 73 -1
-15 73 -1.4
-15 73 -0.60000002
-13.4 72.599998 -1
-13 72.599998 -1
-14.2 73 -1
-13.4 72.599998 -0.60000002
-8.1999998 70.199997 -0.2
-7 70.199997 -1
-6.5999999 70.199997 -1
-7.8000002 70.199997 -0.60000002
-7.4000001 70.199997 -0.60000002
-7.8000002 70.199997 -0.2
-7 70.199997 -0.60000002
-3.4000001 70.199997 -3.4000001
-1.8 68.599998 -3.4000001
-0.60000002 67.800003 -3.8
-1 68.199997 -3.8
-1.4 68.599998 -3.8
-1.8 69.400002 -4.1999998
-1.8 69 -3.8
-2.2 69.400002 -3.8
-2.2 69 -3.4000001
-2.5999999 69.800003 -3.8
-0.2 66.599998 -2.5999999
-0.2 66.199997 -2.2
-0.2 65.800003 -1.8
-0.60000002 65.400002 -1
-0.2 64.599998 -0.60000002
-2.2 66.599998 -1
-2.2 66.199997 -0.60000002
-2.2 65.800003 -0.2
-3 67 -0.2
-5.8000002 70.199997 -1.8
-5 70.199997 -2.2
-5.4000001 70.199997 -1.8
-4.5999999 70.199997 -2.5999999
-4.1999998 70.199997 -2.5999999
-3.8 70.199997 -3
-3.4000001 69.400002 -2.2
-3.4000001 69 -1.8
-4.5999999 69.800003 -1.8
-3.8 69.800003 -2.2
-3.4000001 68.599998 -1.4
-3.4000001 67.800003 -0.60000002
-6.1999998 70.199997 -1.4
-5.8000002 70.199997 -1.4
-6.1999998 70.199997 -1
-5.8000002 70.199997 -1
-5.4000001 69.400002 -0.2
-5 69.400002 -0.2
-6.1999998 69.800003 -0.2
-5.8000002 69.800003 -0.2
-5.4000001 69.800003 -0.60000002
-4.1999998 69 -0.60000002
-4.5999999 69.400002 -0.60000002
-4.5999999 69 -0.2
-2.2 68.199997 -2.5999999
-2.2 67.800003 -2.2
-2.5999999 68.599998 -2.2
-3 68.599998 -1.8
-3 69.400002 -3
-3 69.400002 -2.5999999
-3 69 -2.2
-2.5999999 67.800003 -1.4
-2.5999999 67.400002 -1
-3 67.800003 -1
-3 68.199997 -1.4
-12.2 73.400002 -3.8
-11.8 73 -3.4000001
-11 72.599998 -3.4000001
-9.3999996 71.800003 -3.4000001
-8.1999998 71.400002 -3.8
-6.5999999 71 -3.4000001
-10.6 71.800003 -2.5999999
-9.8000002 71.400002 -2.5999999
-9.8000002 71 -1.8
-11 71.800003 -2.2
-10.6 71.400002 -1.8
-11 71.800003 -1.8
-10.2 71.400002 -2.2
-9.8000002 71.400002 -2.2
-10.2 71.400002 -1.8
-12.6 73 -2.2
-11 72.199997 -3
-10.2 71 -1.4
-9.8000002 71 -1.4
-10.2 71 -1
-10.6 71.400002 -1.4
-9.8000002 70.599998 -0.2
-11 71.400002 -0.2
-11.8 72.199997 -1.4
-12.2 72.199997 -0.60000002
-12.6 72.199997 -0.2
-8.6000004 71 -2.5999999
-8.1999998 71 -2.5999999
-9.3999996 71.400002 -3
-9 71 -2.2
-9.3999996 71 -1.8
-9 71 -1.8
-7.4000001 71 -3
-7.8000002 71 -2.5999999
-7 71 -3
-6.5999999 71 -3
-7.4000001 70.599998 -1.8
-7 70.599998 -2.2
-6.5999999 70.599998 -2.2
-9 70.599998 -1
-8.6000004 70.599998 -1.4
-8.1999998 70.599998 -1.4
-8.6000004 70.599998 -1
-8.1999998 70.599998 -1
-9.3999996 70.599998 -0.60000002
-9 70.599998 -0.60000002
-8.6000004 70.599998 -0.60000002
-7.8000002 70.599998 -1.4
-6.1999998 71 -3.4000001
-5.8000002 71 -3.4000001
-5 71 -3.8
-3.8 71 -4.1999998
-4.5999999 71 -3.8
-4.1999998 71 -3.8
-3.8 70.599998 -3.4000001
-5.8000002 70.599998 -2.5999999
-5.4000001 70.599998 -3
-6.1999998 70.599998 -2.2
-49 89 -9.8000002
-50.599998 87.400002 -9.3999996
-49 87.800003 -8.1999998
-49.400002 88.199997 -9
-46.599998 88.599998 -7.8000002
-46.200001 88.199997 -7
-38.599998 89.400002 -8.1999998
-40.599998 88.199997 -6.5999999
-51 78.599998 -3.4000001
-50.599998 78.599998 -3.4000001
-51 79 -3.4000001
-44.599998 87.800003 -6.1999998
-30.6 89.400002 -7.8000002
-31 89.400002 -7.4000001
-30.6 89.400002 -7.4000001
-30.200001 89.400002 -7.8000002
-29.799999 89.400002 -7.8000002
-29.4 89.400002 -7.8000002
-29 89.400002 -7.8000002
-28.6 89.400002 -7.8000002
-28.200001 89.400002 -7.8000002
-30.200001 82.199997 -1.8
-29.799999 82.199997 -1.8
-29.4 81.800003 -1.8
-29 81.800003 -1.8
-29.4 82.199997 -1.8
-29 82.199997 -1.8
-30.200001 82.599998 -1.8
-29.799999 82.599998 -1.8
-29.4 82.599998 -1.8
-26.200001 88.199997 -5.4000001
-30.200001 83.400002 -2.2
-50.599998 93.400002 -11
-50.200001 93.400002 -11
-48.599998 93 -10.6
-27.4 89.800003 -8.1999998
-22.6 87.800003 -6.5999999
-23.4 88.199997 -7.4000001
-22.200001 87.800003 -6.5999999
-21.799999 87.800003 -6.5999999
-21.4 87.800003 -6.5999999
-21 87.800003 -6.5999999
-22.200001 88.599998 -7.4000001
-21.799999 88.199997 -7
-22.200001 88.599998 -7
-21.799999 88.199997 -6.5999999
-21.4 88.199997 -6.5999999
-21 88.199997 -6.5999999
-15.8 87 -6.5999999
-13.8 86.599998 -7.4000001
-25.4 87.800003 -5.8000002
-18.6 86.199997 -4.1999998
-18.200001 86.199997 -4.1999998
-18.6 87 -5.8000002
-7.4000001 85 -7.8000002
-7 85 -7.8000002
-11.8 84.199997 -5.4000001
-23 93.400002 -8.6000004
-22.6 93.400002 -8.6000004
-22.200001 93.400002 -8.6000004
-21.799999 93.400002 -8.6000004
-21.4 93.400002 -8.6000004
-21 93.400002 -8.6000004
-20.6 93 -8.6000004
-20.6 93.400002 -8.6000004
-20.200001 93.400002 -8.6000004
-19.799999 93 -8.6000004
-19.4 93 -8.6000004
-19 93 -8.6000004
-18.6 93 -8.6000004
-18.200001 93 -8.6000004
47 6.1999998 -1.4
44.599998 7.8000002 -1.4
44.200001 8.1999998 -0.60000002
44.200001 8.6000004 -0.60000002
43.400002 9 -0.60000002
44.200001 9.3999996 -0.60000002
44.599998 10.2 -1
44.200001 9.8000002 -0.60000002
44.599998 9.8000002 -0.60000002
44.599998 10.2 -0.2
44.599998 10.6 -0.2
45.799999 7 -1
46.200001 7 -1
45.400002 7.8000002 -1.4
45.799999 7 -0.60000002
46.200001 7 -0.60000002
45 7.4000001 -0.60000002
46.599998 6.5999999 -1.4
47 6.5999999 -1.4
46.599998 6.5999999 -1
47.400002 7 -1
47.400002 7.4000001 -1.4
47.799999 7.8000002 -1.4
46.599998 6.5999999 -0.60000002
47 6.5999999 -0.60000002
46.599998 7 -0.60000002
47 7 -0.2
47.400002 7 -0.2
47.400002 7.4000001 -0.2
47.799999 7.8000002 -0.2
46.200001 9.3999996 -1.4
47.799999 8.1999998 -1.4
46.599998 9 -1.4
46.599998 9.3999996 -1.4
47.799999 8.1999998 -0.60000002
48.200001 8.1999998 -1.4
48.200001 8.6000004 -1.4
48.200001 8.6000004 -1
48.599998 8.6000004 -1
48.599998 9 -1.4
48.599998 9 -1
48.200001 8.1999998 -0.60000002
48.200001 8.6000004 -0.60000002
45 10.6 -1
45 11 -0.60000002
45 10.6 -0.2
45 11 -0.2
46.599998 9.8000002 -1.4
47.799999 10.2 -1.4
46.599998 11 -1.4
46.599998 11 -1
47 11 -1
47.400002 10.6 -1.4
47.400002 10.6 -1
47.799999 10.6 -1
47.400002 11 -1
47.799999 11 -1
45 11.4 -1
45.400002 11.4 -0.2
46.200001 12.6 -0.2
47 11.4 -1.4
47 11.4 -1
47 11.8 -1
47.400002 11.4 -1
47.799999 11.4 -1
47 12.2 -1.4
49.400002 10.2 -1.4
48.200001 10.6 -1.4
48.599998 11 -1.4
48.200001 10.6 -1
48.200001 11 -1
49.799999 11 -1
50.200001 11 -1
48.200001 11.4 -1
50.599998 11.8 -0.60000002
51 12.6 -0.2
35 13.8 -1
35 25.4 -4.5999999
38.200001 21.4 -3
38.200001 21.799999 -3
38.200001 22.200001 -3
38.200001 22.6 -3
39.799999 18.6 -3
40.200001 18.6 -2.5999999
45.799999 13 -1.4
46.200001 13 -0.60000002
46.200001 13 -0.2
46.599998 13 -0.2
46.599998 13.4 -0.2
46.599998 13.8 -0.2
47 13.8 -0.2
45.799999 15 -0.60000002
47.400002 14.6 -0.2
25 31.799999 -2.2
25.4 33.799999 -3
23.799999 38.200001 -3
23.4 38.200001 -2.5999999
23 37.400002 -1.8
24.200001 37 -2.5999999
25 38.599998 -4.5999999
31.799999 26.200001 -5.4000001
31.4 26.6 -5.4000001
31.799999 26.6 -5.4000001
31.4 27 -5.4000001
25.799999 28.200001 -2.2
32.200001 26.200001 -5.4000001
25.799999 36.200001 -3.8
25.799999 37 -4.1999998
57.400002 5.8000002 -4.1999998
56.599998 6.1999998 -3.4000001
57 6.1999998 -3.4000001
57.400002 6.1999998 -3.4000001
52.599998 1.4 -1
53.400002 1 -1.4
53.400002 1.4 -1.4
53 1.4 -1
51.400002 1.8 -1.4
51.799999 1.8 -1.4
51.799999 2.2 -1.4
52.200001 1.8 -1.4
52.599998 1.8 -1.4
52.200001 2.2 -1.4
52.599998 2.2 -1.4
52.599998 1.8 -1
53 1.8 -1.4
53.400002 1.8 -1.4
53 2.2 -1.4
52.599998 5.4000001 -1.4
52.200001 5.4000001 -1
52.599998 5.4000001 -0.2
61.400002 3 -3.4000001
59.799999 4.5999999 -3.8
58.200001 5.8000002 -4.1999998
59 5.4000001 -3.8
57.799999 6.1999998 -3.4000001
59.400002 5 -3.8
63 0.60000002 -2.5999999
63.400002 0.2 -2.5999999
63.400002 0.2 -2.2
63.400002 0.60000002 -2.2
63.400002 0.60000002 -1.8
63 1 -2.2
63.400002 1 -1.8
62.200001 1.8 -3
62.200001 2.2 -2.5999999
61.799999 3 -2.5999999
62.200001 2.5999999 -2.2
62.200001 3 -1.8
62.599998 1.8 -2.2
62.599998 2.2 -1.8
63.400002 1 -1.4
63.400002 1.4 -1
63 1.8 -1.4
62.599998 2.5999999 -1.4
58.599998 6.1999998 -3
59 6.1999998 -3
58.599998 6.1999998 -2.5999999
59 6.1999998 -2.5999999
59 6.1999998 -2.2
59 6.1999998 -1.8
60.200001 5.4000001 -2.5999999
59.400002 5.8000002 -3
59.400002 5.8000002 -2.5999999
59.799999 5.8000002 -2.5999999
60.200001 5.4000001 -2.2
60.599998 5.4000001 -1.8
59.400002 5.8000002 -2.2
59.799999 5.8000002 -2.2
59.799999 5.8000002 -1.8
59.400002 6.1999998 -1.8
61.400002 3.4000001 -3
61 3.8 -3
61.799999 3.4000001 -2.2
61.799999 3.8 -1.8
61.400002 4.1999998 -2.2
61.400002 4.5999999 -1.8
54.200001 9 -1.4
57.400002 7 -2.5999999
57.400002 7 -2.2
57.400002 7 -1.8
56.599998 7.4000001 -2.2
56.200001 7.8000002 -2.2
56.200001 7.8000002 -1.8
57 7.4000001 -2.2
57 7.4000001 -1.8
54.599998 8.6000004 -1.8
55 8.6000004 -1.8
55.400002 8.1999998 -1.8
55.799999 8.1999998 -1.8
55.400002 8.6000004 -1.4
54.599998 9 -1.4
58.200001 6.5999999 -2.5999999
57.799999 7 -2.5999999
58.200001 6.5999999 -2.2
57.799999 7 -2.2
58.200001 6.5999999 -1.8
57.799999 7 -1.8
58.599998 6.5999999 -2.2
58.599998 6.5999999 -1.8
63.799999 25.799999 -0.2
63.799999 26.200001 -0.2
63.799999 26.6 -0.60000002
63.799999 26.6 -0.2
64.199997 26.200001 -0.2
64.199997 26.6 -0.60000002
64.199997 27 -0.60000002
64.199997 26.6 -0.2
64.199997 27.4 -0.60000002
75 29 -0.2
75.400002 29 -0.2
74.599998 31 -0.60000002
75 31 -0.60000002
74.599998 31.4 -0.60000002
75 31.4 -0.60000002
75.400002 31 -0.60000002
75.800003 31 -0.60000002
65.400002 35 -2.5999999
65.800003 35 -2.5999999
66.199997 35 -2.5999999
66.599998 35 -2.5999999
65.800003 35.400002 -2.5999999
66.199997 35.400002 -2.5999999
66.599998 35.400002 -2.5999999
66.599998 35.799999 -2.5999999
66.199997 36.200001 -3
66.599998 36.200001 -3
67 36.200001 -3
66.599998 36.599998 -3
67 36.599998 -3
66.599998 37 -3
67 37 -3
66.599998 37.400002 -3
67 37.400002 -3
66.599998 37.799999 -3
67 37.799999 -3
67 38.200001 -3
67.400002 36.200001 -3
67.400002 36.599998 -3
67.800003 36.599998 -3
67.400002 37 -3
67.800003 37 -3
67.400002 37.400002 -3
67.800003 37.400002 -3
67.400002 37.799999 -3
67.800003 37.799999 -3
67.400002 38.200001 -3
67.800003 38.200001 -3
73.400002 38.200001 -6.1999998
73.400002 37.400002 -5
73 38.200001 -5.4000001
70.599998 36.200001 -3.4000001
71 36.200001 -3.4000001
71 35 -2.5999999
71.400002 35 -2.5999999
71.800003 35 -2.5999999
71.400002 33.799999 -1.8
71.800003 33.799999 -1.8
71.800003 34.200001 -1.8
71.400002 34.599998 -2.2
71.800003 34.599998 -2.2
72.199997 35 -2.5999999
72.599998 35 -2.5999999
72.199997 33.799999 -1.8
72.599998 33.799999 -1.8
72.199997 34.200001 -1.8
72.599998 34.200001 -1.8
73 33.799999 -1.8
73.400002 33.799999 -1.8
73 34.200001 -1.8
72.199997 34.599998 -2.2
72.599998 34.599998 -2.2
71.800003 33.400002 -1.4
72.199997 33.400002 -1.4
72.599998 33.400002 -1.4
72.599998 33 -1
72.599998 33.400002 -1
73 33.400002 -1.4
73.400002 33.400002 -1.4
73 33 -1
73.400002 33 -1
72.199997 33.799999 -1.4
72.599998 33.799999 -1.4
73 33.799999 -1.4
75 32.599998 -1.8
75.800003 33.400002 -3
75.800003 32.200001 -1.8
70.599998 35.400002 -3
71 35.400002 -3
71 35.799999 -3
71.400002 35.400002 -3
71.800003 35.400002 -3
71.400002 35.400002 -2.5999999
72.199997 35.400002 -3
72.599998 35.400002 -3
62.200001 41 -3.8
62.200001 41.400002 -3.8
63 40.200001 -3.8
62.599998 40.599998 -3.8
63 40.599998 -3.8
62.599998 41 -3.8
63 41 -3.8
60.599998 42.200001 -4.1999998
59.799999 43 -4.5999999
60.200001 43 -4.5999999
60.599998 43 -4.5999999
60.599998 42.599998 -4.1999998
61.799999 43.799999 -5
61 42.200001 -4.1999998
61.400002 42.200001 -4.1999998
61 43 -4.5999999
70.199997 44.599998 -8.1999998
70.199997 44.200001 -7.8000002
70.199997 44.200001 -7.4000001
69.800003 44.599998 -7.4000001
70.199997 43.799999 -7
71.800003 41 -6.5999999
71.800003 42.200001 -8.1999998
71.400002 43 -8.6000004
71.400002 43 -8.1999998
71 43.799999 -9
70.599998 44.200001 -9
70.599998 44.599998 -9
71 43.400002 -8.1999998
70.599998 43.799999 -8.1999998
70.599998 44.200001 -8.6000004
71.800003 42.200001 -7.8000002
71.800003 41.799999 -7.4000001
71 43 -7.4000001
70.599998 43 -6.5999999
71 43.400002 -7.8000002
70.599998 43.799999 -7.8000002
70.599998 43.400002 -7.4000001
69.800003 45.799999 -9
70.199997 45 -8.6000004
69.800003 45.400002 -8.1999998
69.400002 46.200001 -8.6000004
69.400002 45.799999 -8.1999998
69.800003 45.799999 -8.6000004
69 47 -9
69 47.400002 -9
69 46.599998 -8.6000004
69 47 -8.6000004
69 46.599998 -8.1999998
69.800003 45 -7.8000002
67 40.200001 -3.4000001
67 40.599998 -3.4000001
66.599998 41.400002 -3.8
67 41.400002 -3.8
67 41 -3.4000001
67.400002 40.200001 -3.4000001
67.800003 40.200001 -3.4000001
67.400002 40.599998 -3.4000001
67.800003 40.599998 -3.4000001
68.199997 40.200001 -3.4000001
68.199997 40.599998 -3.4000001
67.400002 41.400002 -3.8
67.800003 41.400002 -3.8
67.400002 41 -3.4000001
67.800003 41 -3.4000001
65.400002 43.400002 -5
65.800003 43.400002 -5
66.199997 43.400002 -5
66.199997 42.200001 -4.1999998
66.599998 42.200001 -4.1999998
67 42.200001 -4.1999998
65.800003 42.599998 -4.5999999
66.199997 42.599998 -4.5999999
65.800003 43 -4.5999999
66.199997 43 -4.5999999
66.599998 42.599998 -4.5999999
66.599998 41.799999 -3.8
67 41.799999 -3.8
67 38.599998 -3
67 39 -3
67.400002 38.599998 -3
67.800003 38.599998 -3
67.400002 39 -3
67.800003 39 -3
67.400002 39.400002 -3
67.800003 39.400002 -3
67.400002 39.799999 -3
67.800003 39.799999 -3
67.400002 40.200001 -3
67.800003 40.200001 -3
67.800003 40.599998 -3
73 38.599998 -6.1999998
72.199997 39.799999 -6.1999998
70.599998 40.200001 -5
72.599998 40.599998 -2.5999999
73 40.200001 -2.5999999
73.400002 40.200001 -2.5999999
73 40.599998 -2.5999999
72.199997 41 -2.5999999
72.599998 41 -2.5999999
72.199997 41.400002 -2.5999999
73 40.200001 -2.2
73.400002 40.200001 -2.2
73 40.599998 -2.2
73.400002 40.599998 -2.2
72.599998 41 -2.2
72.199997 41.400002 -2.2
72.599998 41.400002 -2.2
73 41 -2.2
73 41.400002 -2.2
73.400002 39.799999 -0.2
72.599998 40.599998 -0.60000002
73 40.200001 -0.60000002
73 40.599998 -0.60000002
73.400002 40.200001 -0.2
73 40.599998 -0.2
73.400002 40.599998 -0.2
72.599998 41 -0.60000002
72.599998 41.400002 -0.60000002
72.599998 41.400002 -0.2
73 41 -0.60000002
73 41 -0.2
73.400002 41 -0.2
73 41.400002 -0.2
74.599998 39.799999 -2.5999999
75 39.799999 -2.5999999
74.599998 39.799999 -2.2
75 39.799999 -2.2
73.800003 40.200001 -2.5999999
73.800003 40.200001 -2.2
74.199997 40.200001 -2.2
73.800003 40.599998 -2.2
75 40.200001 -2.2
75.400002 40.200001 -2.2
74.199997 39.400002 -0.2
73.800003 39.799999 -0.2
75 39.400002 -0.2
71.800003 41.799999 -2.5999999
71.800003 42.200001 -2.5999999
71.800003 42.599998 -2.5999999
71.800003 43 -2.5999999
72.199997 41.799999 -2.5999999
72.199997 42.200001 -2.5999999
72.199997 42.599998 -2.5999999
72.199997 43 -2.5999999
72.199997 41.799999 -2.2
72.599998 41.799999 -2.2
72.199997 42.599998 -2.2
72.199997 43 -2.2
71.800003 43 -0.60000002
72.199997 41.799999 -0.60000002
72.599998 41.799999 -0.60000002
72.199997 42.200001 -0.60000002
72.599998 41.799999 -0.2
72.199997 42.200001 -0.2
72.599998 42.200001 -0.2
73 41.799999 -0.2
72.199997 42.599998 -0.60000002
72.199997 42.599998 -0.2
72.199997 43 -0.2
71.800003 43.799999 -0.2
71.400002 44.599998 -0.2
72.199997 43.400002 -0.2
72.199997 43.799999 -0.2
65 46.200001 -5.8000002
65.400002 46.200001 -5.8000002
71.800003 48.200001 -0.2
71.800003 48.599998 -0.2
72.199997 48.599998 -0.60000002
72.599998 48.599998 -0.60000002
72.199997 48.200001 -0.2
72.599998 48.200001 -0.2
72.199997 48.599998 -0.2
72.599998 48.599998 -0.2
73 48.599998 -0.60000002
73.400002 48.599998 -0.60000002
73 48.200001 -0.2
73.400002 48.200001 -0.2
73 48.599998 -0.2
73.400002 48.599998 -0.2
73 49 -0.60000002
73.400002 49 -0.60000002
74.599998 48.599998 -2.2
74.599998 49.400002 -2.2
74.599998 49 -1.8
74.599998 49.400002 -1.8
74.599998 49.799999 -2.2
74.599998 50.200001 -2.2
74.599998 49.799999 -1.8
74.599998 50.200001 -1.8
74.599998 50.599998 -2.2
74.599998 51 -2.2
74.599998 50.599998 -1.8
74.599998 51 -1.8
73.800003 48.599998 -0.60000002
73.800003 48.599998 -0.2
74.199997 48.599998 -0.2
74.599998 48.599998 -0.2
73.800003 49 -0.60000002
74.199997 49 -0.60000002
74.599998 49 -0.60000002
75 49 -0.60000002
74.599998 49 -0.2
75.400002 49 -0.60000002
75.400002 49 -0.2
75.800003 49 -0.2
79.400002 27 -0.2
79.800003 28.6 -1.4
80.199997 28.200001 -1
79.800003 29 -1.8
79.400002 29.4 -1.8
78.599998 30.200001 -1.8
79.400002 29.799999 -2.2
77.400002 31.799999 -2.5999999
77.400002 31.4 -2.2
78.599998 30.6 -2.2
77.400002 30.200001 -1
79 29.4 -1.4
77 30.6 -1
84.599998 29.4 -0.2
77.400002 32.599998 -3.4000001
77 32.599998 -3
77 32.200001 -2.5999999
80.599998 41.799999 -0.2
81 41.799999 -0.2
81.400002 41.799999 -0.2
81.800003 41.799999 -0.2
82.199997 41.799999 -0.2
83 41.799999 -0.2
83.400002 39.799999 -3.4000001
83.400002 41.799999 -0.2
3.4000001 63.799999 -1.4
23.799999 57.400002 -6.5999999
15 63.400002 -6.5999999
14.6 63.799999 -6.5999999
15.4 63.400002 -7
17 62.200001 -7
18.200001 61.400002 -6.5999999
19 61 -7
18.6 61 -6.5999999
17 62.599998 -7.4000001
16.200001 62.599998 -7
16.6 62.599998 -7
16.200001 62.599998 -6.5999999
20.6 60.599998 -8.6000004
20.6 60.599998 -8.1999998
22.200001 59 -7.8000002
21.4 59 -6.5999999
19.799999 60.599998 -7.8000002
19.799999 60.599998 -7.4000001
20.200001 60.599998 -7.8000002
20.6 59.799999 -7
20.6 59.400002 -6.5999999
20.200001 59.799999 -6.5999999
19.4 60.599998 -7
19.799999 60.200001 -6.5999999
19.4 60.599998 -6.5999999
20.200001 60.200001 -7
21.4 59.799999 -7.8000002
21.4 59.400002 -7.4000001
21 59.799999 -7.4000001
21.799999 59.400002 -7.8000002
21 59.400002 -7
23.799999 59 -8.6000004
23.799999 58.599998 -8.1999998
23 59.799999 -9
22.6 58.200001 -7
23 57.799999 -6.5999999
19.799999 61.400002 -8.6000004
19.4 61.799999 -8.6000004
19.4 61 -7.4000001
22.200001 57.400002 -5.4000001
23 57.400002 -6.1999998
22.6 57.400002 -5.8000002
18.6 60.200001 -5.4000001
18.200001 59.799999 -4.5999999
15.8 62.200001 -5.4000001
15.4 62.200001 -5
13.4 63.799999 -5.8000002
13 63.400002 -5
15 63 -6.1999998
15.8 62.599998 -6.1999998
15.4 62.599998 -5.8000002
14.6 63.400002 -6.1999998
14.2 61.799999 -4.1999998
17.4 61.400002 -5.8000002
16.6 61.799999 -5.8000002
16.200001 62.200001 -5.8000002
17 61.799999 -6.1999998
16.6 61.400002 -5
17 61.400002 -5.4000001
17.4 61 -5
16.200001 61.799999 -5.4000001
16.200001 61.799999 -5
17.799999 61.400002 -6.1999998
17.799999 61 -5.8000002
17 61 -4.5999999
22.200001 57.799999 -5.8000002
21.4 58.599998 -6.1999998
21 58.599998 -5.8000002
19.799999 59.400002 -5.8000002
19.4 59.799999 -5.8000002
19.4 60.200001 -6.1999998
19.799999 59.400002 -5.4000001
22.6 57.799999 -6.1999998
7.8000002 67 -7
9 67 -7.4000001
8.6000004 66.599998 -6.5999999
11.8 65.400002 -6.5999999
11 65.800003 -6.5999999
6.5999999 67.400002 -7
12.2 75.400002 -8.6000004
12.6 75.400002 -8.6000004
12.2 75.800003 -8.6000004
1.4 67 -4.1999998
0.60000002 67 -3.8
1.4 66.599998 -3.8
5.4000001 67 -5.8000002
5.4000001 66.599998 -5.4000001
5 65.400002 -3.4000001
3.8 66.199997 -4.1999998
3.4000001 66.599998 -4.5999999
3.4000001 65.800003 -3.4000001
4.1999998 65.800003 -3.8
4.5999999 65.800003 -3.8
5.4000001 66.199997 -4.5999999
5.8000002 65.800003 -4.1999998
3 67.400002 -5.4000001
1.8 69 -6.1999998
2.2 65 -2.2
0.2 65.800003 -2.2
1.8 65.800003 -3
1.4 64.599998 -1.4
7 66.599998 -5.8000002
7.4000001 66.199997 -5.4000001
7.8000002 65.800003 -5
8.1999998 66.199997 -5.8000002
8.1999998 65.800003 -5
9 65.800003 -5.4000001
7.4000001 65.400002 -4.1999998
6.5999999 65.400002 -3.8
8.6000004 65.400002 -4.5999999
9 65.400002 -4.5999999
7 65.800003 -4.5999999
11 65.400002 -5.8000002
9.8000002 65.400002 -5
11 65 -5.4000001
10.6 65.400002 -5.4000001
12.2 64.599998 -5.8000002
11.4 65.400002 -6.1999998
11.8 64.599998 -5.4000001
11.8 64.199997 -5
11.4 64.599998 -5
12.2 64.199997 -5.4000001
10.2 65.800003 -5.8000002
11.4 64.199997 -4.5999999
13.8 64.599998 -7
13 65 -7
23 65.400002 -11
23.4 65.400002 -11
23.799999 65.400002 -11
24.200001 65.400002 -11
23.4 66.199997 -10.6
23.799999 66.199997 -10.6
24.200001 71.400002 -9.8000002
24.6 71.400002 -9.8000002
24.200001 71.800003 -9.8000002
24.6 71.800003 -9.8000002
23.799999 72.199997 -9.8000002
24.200001 72.199997 -9.8000002
24.6 72.199997 -9.8000002
24.6 72.599998 -9.8000002
24.6 73 -9.8000002
24.6 73.400002 -9.8000002
25.4 75 -11.4
25.4 76.199997 -12.6
25.4 76.599998 -12.6
25 76.599998 -12.2
25.4 75.800003 -11.8
25.4 75.400002 -11.4
24.6 76.599998 -11.4
25 76.199997 -11.8
25 76.199997 -11.4
25.4 74.599998 -11
25.4 75 -11
24.6 73.800003 -9.8000002
24.6 74.199997 -9.8000002
24.6 74.599998 -9.8000002
24.6 75 -9.8000002
25 74.599998 -10.2
23.799999 76.199997 -10.2
24.6 75.800003 -10.6
25 75.800003 -11
25 75.400002 -10.6
24.6 76.199997 -11
24.6 75.800003 -10.2
24.200001 73.400002 -9.3999996
13.4 64.199997 -6.1999998
38.599998 59 -13
39 59 -13
49.799999 60.200001 -14.2
50.599998 60.599998 -13.8
51 60.599998 -13.8
51 60.599998 -13.4
26.200001 75.400002 -13
36.599998 76.599998 -16.200001
37.400002 76.599998 -17
37.799999 75.800003 -16.200001
37 76.599998 -16.6
37 76.199997 -16.200001
37.799999 76.199997 -16.6
38.200001 75 -15.8
35.799999 76.599998 -15.4
36.200001 76.599998 -15.8
37 75.800003 -15.4
46.599998 68.199997 -16.200001
45.400002 69 -15.4
41.400002 73.400002 -16.6
44.200001 70.599998 -16.200001
42.200001 72.599998 -16.6
41.799999 73 -16.200001
39.799999 74.599998 -16.200001
41 74.199997 -17
40.599998 74.199997 -16.6
40.200001 74.199997 -16.200001
40.599998 74.199997 -16.200001
41 73.800003 -16.6
41 73.800003 -16.200001
40.200001 74.599998 -16.6
39.400002 75.400002 -17
41.400002 73 -15.8
40.599998 73.800003 -15.8
47.799999 75.400002 -17
47.400002 75.800003 -17
47.799999 75.800003 -16.6
47 76.599998 -16.6
47.400002 76.599998 -16.200001
48.599998 75 -17
49 74.599998 -17
49.400002 74.599998 -16.6
49 75 -16.200001
50.200001 74.199997 -16.6
49.799999 74.599998 -16.200001
48.599998 75.400002 -16.200001
48.200001 75.800003 -16.200001
47.799999 76.599998 -15.8
48.200001 76.199997 -15.8
29.799999 54.599998 -7.8000002
29.799999 55 -7.8000002
37.799999 58.599998 -12.6
38.200001 58.599998 -12.6
37.799999 59 -12.6
38.200001 59 -12.6
49.400002 57.400002 -12.2
49.400002 57 -11.4
38.599998 58.599998 -12.6
39 58.599998 -12.6
38.599998 59 -12.6
39 59 -12.6
38.599998 58.599998 -12.2
50.599998 58.599998 -11.8
25.799999 69.800003 -10.6
25.799999 70.199997 -10.6
26.200001 73 -11.8
26.200001 73.400002 -11.8
26.200001 70.599998 -11
25.799999 70.599998 -10.6
25.799999 71.400002 -11
25.799999 71.800003 -11
25.799999 72.199997 -11
25.799999 72.599998 -11
26.200001 74.199997 -12.2
26.200001 74.599998 -12.6
25.799999 75 -12.2
26.200001 73.800003 -11.8
25.799999 73.800003 -11.4
25.799999 74.199997 -11.4
25.799999 74.599998 -11.8
24.6 78.199997 -13
25 77.800003 -13
25 78.599998 -13.8
24.200001 78.599998 -13
25.4 89 -15.8
25 89.400002 -15.8
25 90.199997 -16.6
5 79.400002 -7.4000001
5 79.800003 -7.4000001
9 77.400002 -8.1999998
9 77.800003 -8.1999998
17.799999 80.599998 -10.6
18.200001 80.599998 -10.6
18.6 80.599998 -10.6
22.200001 79.400002 -12.6
21.799999 79.400002 -12.2
21.799999 79 -11.8
22.200001 78.599998 -11.4
22.200001 78.199997 -11
19.799999 78.599998 -10.2
23.799999 77.400002 -11.4
22.6 78.199997 -11.4
24.6 77.800003 -12.6
24.200001 77.800003 -12.2
24.6 77 -11.8
24.200001 77.400002 -11.8
24.200001 77 -11.4
22.6 79 -12.6
23 78.599998 -12.2
23.4 78.599998 -12.6
23 77.400002 -10.6
23.799999 77 -11
23.4 77.400002 -11
23 77.800003 -11
20.200001 81 -12.2
35 77.800003 -16.200001
34.200001 79 -16.6
33.799999 79.400002 -16.6
35.799999 77.400002 -16.6
35.400002 77.400002 -16.200001
36.200001 77 -16.6
33.400002 80.199997 -16.6
32.599998 81.800003 -17
35 77.400002 -15.8
34.599998 77.800003 -15.8
33.400002 79 -15.4
33.400002 79.400002 -15.8
33 79.400002 -15.4
34.200001 78.599998 -15.8
29 85.800003 -16.6
27.799999 87 -17
26.200001 89.400002 -17
29 84.199997 -15.4
29 85 -15.8
43.799999 81 -17.4
43.799999 81.400002 -17.4
44.200001 81 -17
44.599998 81 -16.6
43 82.199997 -17.4
42.599998 82.599998 -17.4
42.599998 83 -17.4
43 82.599998 -17
42.599998 83 -17
43.400002 81.800003 -17.4
43.799999 81.800003 -17
43.400002 82.199997 -17
43.799999 82.199997 -16.6
43.400002 82.599998 -16.6
43.400002 83 -16.200001
46.200001 77 -17.4
46.200001 77.400002 -17
46.200001 78.199997 -16.200001
46.599998 77.400002 -16.200001
45 79 -17.4
45.400002 78.599998 -17
45.799999 78.599998 -16.6
40.200001 86.199997 -17.4
42.200001 83.400002 -17.4
42.599998 83.400002 -16.6
43 83.400002 -16.200001
42.599998 83.800003 -16.200001
41.799999 85 -16.200001
39.400002 87.800003 -17.4
39.799999 87.400002 -17
39.799999 87.800003 -17
40.200001 87.400002 -16.6
40.200001 87.800003 -16.6
39 88.599998 -17.4
39.400002 88.199997 -17.4
39.400002 88.599998 -17.4
39.400002 88.199997 -17
39.799999 88.199997 -17
39.400002 88.599998 -17
39 89 -17.4
38.599998 89.400002 -17.4
39 89 -17
39.400002 89 -17
39.799999 88.199997 -16.6
39.400002 88.599998 -16.6
39.799999 88.599998 -16.6
39.799999 88.599998 -16.200001
39.400002 89 -16.6
40.200001 88.199997 -16.200001
40.200001 88.599998 -16.200001
42.599998 84.199997 -15.8
41.799999 85.800003 -15.8
40.599998 88.199997 -15.8
40.200001 88.599998 -15.8
40.599998 88.599998 -15.8
41 88.199997 -15.4
47.799999 81.800003 -8.1999998
47.400002 82.199997 -8.1999998
47.799999 82.199997 -8.1999998
47 82.599998 -8.1999998
47 83 -8.1999998
47.400002 82.599998 -8.6000004
47.400002 82.599998 -8.1999998
47.799999 81.800003 -7.8000002
47.799999 82.199997 -7.8000002
47.799999 82.199997 -7.4000001
47 83 -7.8000002
47.400002 82.599998 -7.8000002
47.799999 82.599998 -7.8000002
47.400002 83 -7.8000002
47.799999 82.599998 -7.4000001
47.400002 83 -7.4000001
47.799999 83 -7.4000001
47.799999 83 -7
49.400002 80.199997 -8.1999998
49 80.599998 -8.1999998
49.400002 80.599998 -8.1999998
48.599998 81 -8.1999998
48.200001 81.400002 -8.1999998
48.599998 81.400002 -8.1999998
49 81 -8.1999998
49.799999 80.199997 -8.1999998
48.200001 81.800003 -8.1999998
49 80.599998 -7.8000002
49.400002 80.599998 -7.8000002
48.599998 81.400002 -7.8000002
49 81 -7.8000002
49.400002 81 -7.8000002
49 81.400002 -7.8000002
49.400002 81 -7.4000001
49 81.400002 -7.4000001
49.400002 81.400002 -7.4000001
49.400002 81.400002 -7
49.799999 80.199997 -7.8000002
50.200001 80.199997 -7.8000002
49.799999 80.599998 -7.8000002
49.799999 80.599998 -7.4000001
50.200001 80.599998 -7.4000001
50.599998 80.199997 -7.8000002
50.599998 80.599998 -7.4000001
51 80.599998 -7.4000001
49.799999 81 -7.4000001
50.200001 81 -7.4000001
49.799999 81.400002 -7.4000001
50.599998 80.599998 -7
51 80.599998 -7
50.200001 81 -7
49.799999 81.400002 -7
50.200001 81.400002 -7
50.599998 81 -7
51 81 -7
50.599998 81.400002 -7
51 81 -6.5999999
50.599998 81.400002 -6.5999999
51 81.400002 -6.5999999
48.200001 81.800003 -7.8000002
48.599998 81.800003 -7.8000002
48.200001 82.199997 -7.8000002
48.599998 81.800003 -7.4000001
48.200001 82.199997 -7.4000001
48.599998 82.199997 -7.4000001
49 81.800003 -7.4000001
49.400002 81.800003 -7.4000001
48.200001 82.599998 -7.4000001
48.599998 82.599998 -7.4000001
48.200001 83 -7.4000001
48.599998 82.199997 -7
49 81.800003 -7
49.400002 81.800003 -7
49 82.199997 -7
49.400002 82.199997 -7
48.200001 82.599998 -7
48.599998 82.599998 -7
48.200001 83 -7
48.599998 83 -7
49 82.599998 -7
49.400002 82.599998 -7
49 83 -7
49.400002 82.599998 -6.5999999
49 83 -6.5999999
49.400002 83 -6.5999999
49.799999 81.800003 -7
50.200001 81.800003 -7
49.799999 82.199997 -7
49.799999 81.800003 -6.5999999
50.200001 81.800003 -6.5999999
49.799999 82.199997 -6.5999999
50.200001 82.199997 -6.5999999
50.599998 81.800003 -6.5999999
51 81.800003 -6.5999999
50.599998 82.199997 -6.5999999
51 82.199997 -6.5999999
49.799999 82.599998 -6.5999999
50.200001 82.599998 -6.5999999
49.799999 83 -6.5999999
50.200001 83 -6.5999999
50.599998 82.599998 -6.5999999
51 82.599998 -6.5999999
50.599998 83 -6.5999999
51 83 -6.5999999
46.599998 83.400002 -8.1999998
47 83.400002 -8.1999998
46.599998 83.800003 -8.1999998
46.200001 83.800003 -7.8000002
46.200001 84.199997 -7.8000002
45.799999 84.599998 -7.8000002
46.200001 84.599998 -7.8000002
46.200001 84.199997 -7.4000001
46.200001 84.599998 -7.4000001
46.599998 83.400002 -7.8000002
47 83.400002 -7.8000002
46.599998 83.800003 -7.8000002
47 83.400002 -7.4000001
46.599998 83.800003 -7.4000001
47 83.800003 -7.4000001
47.400002 83.400002 -7.4000001
46.599998 84.199997 -7.4000001
46.599998 84.599998 -7.4000001
47 83.800003 -7
47.400002 83.400002 -7
47.799999 83.400002 -7
47.400002 83.800003 -7
47.799999 83.800003 -7
47 84.199997 -7
46.599998 84.599998 -7
47 84.599998 -7
47.400002 84.199997 -7
47.799999 84.199997 -7
47.400002 84.599998 -7
47.799999 84.599998 -6.5999999
45.799999 85 -7.4000001
46.200001 85 -7.4000001
45.799999 85.400002 -7.4000001
45.400002 85.800003 -7.8000002
45.400002 86.199997 -7.8000002
45.799999 85.800003 -7.4000001
45.799999 86.199997 -7.4000001
46.200001 85 -7
45.799999 85.400002 -7
46.200001 85.400002 -7
45.799999 85.800003 -7
46.200001 85.800003 -7
46.200001 86.199997 -7
46.200001 86.199997 -6.5999999
46.599998 85 -7
47 85 -7
46.599998 85.400002 -7
47 85.400002 -7
47 85.400002 -6.5999999
47.400002 85 -6.5999999
47.799999 85 -6.5999999
47.400002 85.400002 -6.5999999
47.799999 85.400002 -6.5999999
46.599998 85.800003 -7
46.599998 85.800003 -6.5999999
47 85.800003 -6.5999999
46.599998 86.199997 -6.5999999
47 86.199997 -6.5999999
47.400002 85.800003 -6.5999999
47.799999 85.800003 -6.5999999
47.400002 86.199997 -6.5999999
47.799999 86.199997 -6.5999999
48.200001 83.400002 -7
48.599998 83.400002 -7
48.200001 83.800003 -7
48.599998 83.800003 -7
48.599998 83.400002 -6.5999999
48.200001 83.800003 -6.5999999
48.599998 83.800003 -6.5999999
49 83.400002 -7
49 83.400002 -6.5999999
49.400002 83.400002 -6.5999999
49 83.800003 -6.5999999
49.400002 83.800003 -6.5999999
48.200001 84.199997 -6.5999999
48.599998 84.199997 -6.5999999
48.200001 84.599998 -6.5999999
48.599998 84.599998 -6.5999999
49 84.199997 -6.5999999
49.400002 84.199997 -6.5999999
49 84.599998 -6.5999999
49.400002 84.599998 -6.5999999
49.799999 83.400002 -6.5999999
50.200001 83.400002 -6.5999999
49.799999 83.800003 -6.5999999
50.200001 83.800003 -6.5999999
50.599998 83.400002 -6.5999999
51 83.400002 -6.5999999
50.599998 83.800003 -6.5999999
51 83.800003 -6.5999999
49.799999 84.199997 -6.5999999
50.200001 84.199997 -6.5999999
49.799999 84.599998 -6.5999999
50.200001 84.599998 -6.5999999
50.599998 84.199997 -6.5999999
51 84.199997 -6.5999999
50.599998 84.599998 -6.5999999
51 84.599998 -6.5999999
48.200001 85 -6.5999999
48.599998 85 -6.5999999
48.200001 85.400002 -6.5999999
48.599998 85.400002 -6.5999999
49 85 -6.5999999
49.400002 85 -6.5999999
49 85.400002 -6.5999999
48.200001 85.800003 -6.5999999
48.599998 85.800003 -6.5999999
49.799999 85 -6.5999999
47 86.599998 -6.5999999
47.400002 87 -7
47.400002 86.599998 -6.5999999
47.799999 86.599998 -6.5999999
47.400002 87 -6.5999999
47.799999 87 -6.5999999
47.799999 87.400002 -6.5999999
51 83 -6.1999998
47.799999 85.800003 -6.1999998
51 84.599998 -6.1999998
48.599998 85.400002 -6.1999998
49 85.400002 -6.1999998
49.400002 85.400002 -6.1999998
48.200001 85.800003 -6.1999998
48.599998 85.800003 -6.1999998
48.200001 86.199997 -6.1999998
48.599998 86.199997 -6.1999998
49 85.800003 -6.1999998
49.400002 85.800003 -6.1999998
49 86.199997 -6.1999998
49.400002 86.199997 -6.1999998
49.400002 86.199997 -5.8000002
49.799999 85 -6.1999998
50.200001 85 -6.1999998
49.799999 85.400002 -6.1999998
50.200001 85.400002 -6.1999998
50.599998 85 -6.1999998
51 85 -6.1999998
50.599998 85.400002 -6.1999998
51 85.400002 -6.1999998
51 85.400002 -5.8000002
49.799999 85.800003 -6.1999998
50.200001 85.800003 -6.1999998
49.799999 86.199997 -5.8000002
50.200001 86.199997 -5.8000002
50.599998 85.800003 -6.1999998
51 85.800003 -5.8000002
50.599998 86.199997 -5.8000002
51 86.199997 -5.8000002
47.799999 87 -6.1999998
47.799999 87.400002 -6.1999998
48.200001 86.599998 -6.1999998
48.599998 86.599998 -6.1999998
48.200001 87 -6.1999998
48.599998 87 -6.1999998
48.599998 87 -5.8000002
49 86.599998 -6.1999998
49.400002 86.599998 -6.1999998
49 86.599998 -5.8000002
49.400002 86.599998 -5.8000002
49 87 -5.8000002
49.400002 87 -5.8000002
48.200001 87.400002 -6.1999998
48.200001 87.400002 -5.8000002
48.599998 87.400002 -5.8000002
48.200001 87.800003 -5.8000002
48.599998 87.800003 -5.8000002
49 87.400002 -5.8000002
49.400002 87.400002 -5.8000002
49 87.800003 -5.8000002
49.400002 87.800003 -5.8000002
49.799999 86.599998 -5.8000002
50.200001 86.599998 -5.8000002
49.799999 87 -5.8000002
50.200001 87 -5.8000002
50.599998 86.599998 -5.8000002
51 86.599998 -5.8000002
50.599998 87 -5.8000002
49.799999 87.400002 -5.8000002
50.200001 87.400002 -5.8000002
51.799999 60.200001 -13
52.200001 60.200001 -13
52.200001 60.599998 -13
52.599998 62.200001 -15
53 62.200001 -15
53.400002 62.200001 -15
52.200001 61 -13.8
52.599998 61.400002 -13.8
53 61.799999 -14.2
53 61.799999 -13.8
53.400002 62.200001 -13.8
53 61.400002 -13.4
53 61.400002 -13
53 61.799999 -13.4
53.400002 61.799999 -13.4
53.400002 62.200001 -13.4
53.400002 61.799999 -13
53.799999 62.200001 -13.4
53.799999 62.200001 -13
54.200001 62.200001 -13
53.799999 62.599998 -13.4
54.200001 62.599998 -13.4
54.200001 62.599998 -13
54.599998 62.200001 -13
54.599998 62.599998 -13.4
54.599998 63 -13.4
55 63 -13.4
54.599998 62.599998 -13
55 62.599998 -13
55 63 -13
55.400002 63 -13.4
55.400002 62.599998 -13
55.400002 63 -13
55.799999 63 -13
55.400002 63.400002 -13.4
55.799999 63.400002 -13.4
55.799999 63.400002 -13
56.200001 63 -13
56.599998 63 -13
57 63 -13
57.400002 63 -13
56.200001 63.400002 -13.4
56.599998 63.400002 -13.4
56.599998 63.799999 -13.4
56.200001 63.400002 -13
56.599998 63.400002 -13
56.599998 63.799999 -13
57 63.799999 -13.4
57.400002 63.799999 -13.4
57 63.400002 -13
57.400002 63.400002 -13
57 63.799999 -13
57.400002 63.799999 -13
63.799999 59.799999 -14.6
63.400002 60.200001 -14.6
63.799999 60.200001 -14.6
63.799999 59 -13
63.799999 59.400002 -14.2
63.799999 59.799999 -14.2
63.799999 59.400002 -13.8
63.799999 59.799999 -13.8
63.799999 60.200001 -14.2
63.400002 60.599998 -14.2
63.400002 60.200001 -13.8
63.799999 60.200001 -13.8
63.400002 60.599998 -13.8
63.799999 59.400002 -13.4
63.799999 59.799999 -13.4
63.799999 59.400002 -13
63.400002 59.799999 -13
63.799999 59.799999 -13
63.400002 60.200001 -13.4
63.400002 60.599998 -13.4
63.400002 60.200001 -13
63.400002 60.599998 -13
57.799999 63 -13
58.200001 63 -13
57.799999 63.400002 -13
58.200001 63.400002 -13
57.799999 63.799999 -13
58.200001 63.799999 -13
58.599998 63.400002 -13
59 63.400002 -13
58.599998 63.799999 -13
59 63.799999 -13
59.799999 63 -13
60.599998 63 -13.4
60.200001 63 -13
60.599998 63 -13
59.400002 63.799999 -13.4
59.799999 63.799999 -13.4
59.400002 63.400002 -13
59.799999 63.400002 -13
59.400002 63.799999 -13
60.200001 63.400002 -13.4
60.599998 63.400002 -13.4
60.200001 63.799999 -13.4
60.599998 63.799999 -13.4
60.200001 63.400002 -13
60.599998 63.400002 -13
62.200001 62.200001 -13.4
62.200001 62.200001 -13
63 61.400002 -14.2
63 61 -13.8
63 61.400002 -13.8
63.400002 61 -13.8
63 61.799999 -14.2
62.599998 61.799999 -13.8
62.599998 62.200001 -13.8
63 61 -13.4
62.599998 61.400002 -13.4
63 61.400002 -13.4
62.599998 61 -13
63 61 -13
62.599998 61.400002 -13
62.599998 61.799999 -13.4
62.599998 62.200001 -13.4
62.599998 61.799999 -13
62.200001 62.599998 -13.8
61.799999 63 -13.8
62.200001 63 -13.8
61.400002 63.400002 -13.8
61.400002 62.599998 -13.4
61 63 -13.4
61.400002 63 -13.4
61.400002 62.599998 -13
61 63 -13
61.799999 62.599998 -13.4
62.200001 62.599998 -13.4
61.799999 63 -13.4
61.799999 62.599998 -13
61 63.400002 -13.4
61.400002 63.400002 -13.4
64.599998 58.599998 -14.6
64.199997 59 -14.6
65.400002 58.599998 -14.6
64.199997 59.400002 -15
64.199997 59.400002 -14.6
65.800003 59.400002 -14.6
65.800003 59.799999 -14.6
65.800003 60.200001 -15
66.199997 60.599998 -14.6
64.599998 58.200001 -13.8
65.400002 57.799999 -14.2
64.199997 59 -14.2
64.199997 59 -13.8
64.599998 57.799999 -13
64.199997 58.599998 -13
64.199997 59 -13
64.199997 59.400002 -14.2
64.199997 59.400002 -13.8
66.599998 60.200001 -13.8
66.599998 59.400002 -13.4
65.800003 61 -15.4
66.199997 61.799999 -15.4
66.599998 61.799999 -15
67 62.599998 -15
67 61 -13.8
67 61.799999 -14.2
67.400002 63.400002 -15
68.199997 62.200001 -13.4
57.799999 64.199997 -13.4
58.200001 64.199997 -13.4
57.799999 64.199997 -13
58.200001 64.199997 -13
59 64.199997 -13.4
58.599998 64.599998 -13.4
59 64.599998 -13.4
58.599998 64.199997 -13
59 64.199997 -13
59.400002 64.199997 -13.4
59.799999 64.199997 -13.4
52.200001 73.400002 -16.6
67.800003 66.199997 -16.200001
68.199997 68.199997 -16.200001
68.199997 69.400002 -16.6
68.599998 70.199997 -16.6
68.599998 69.800003 -16.200001
67.800003 65.400002 -15.8
67.800003 64.199997 -15
68.199997 64.599998 -14.6
68.199997 65 -15
68.599998 65.400002 -14.6
68.199997 65.800003 -15.4
68.199997 66.199997 -15.4
68.199997 66.599998 -15.8
68.599998 66.599998 -15
68.599998 64.599998 -14.2
68.599998 65 -14.2
69 65 -13.8
68.599998 67.800003 -15.4
69 67.400002 -14.6
69 67.800003 -14.6
68.599998 69.400002 -15.8
69 70.199997 -15.8
69 69.800003 -15.4
69 69 -15
69.400002 70.199997 -15
69 71 -16.200001
69 71.400002 -16.6
69 71.800003 -16.6
69.400002 70.599998 -15.4
69.400002 71.400002 -15.8
63.799999 57.400002 -11.4
51.799999 59.799999 -12.2
52.200001 60.200001 -12.6
52.200001 60.599998 -12.6
52.599998 61 -12.6
54.599998 62.200001 -12.6
55 62.599998 -12.6
55.400002 62.599998 -12.6
56.200001 63 -12.6
56.599998 63 -12.6
57 63 -12.6
57.400002 63 -12.6
59.799999 60.200001 -11
60.200001 60.200001 -11
60.599998 60.200001 -11
63.799999 58.599998 -12.6
63.799999 59 -12.6
63.799999 58.599998 -12.2
63.400002 59.799999 -12.6
59 61.799999 -11.8
59.400002 61 -11.4
59.799999 61 -11.4
60.200001 61 -11.4
59.400002 61.799999 -11.8
59.799999 61.799999 -11.8
57.799999 63 -12.6
58.200001 63 -12.6
58.599998 63 -12.6
59 63 -12.6
58.599998 63.400002 -12.6
59 63.400002 -12.6
59.400002 63 -12.6
59.799999 63 -12.6
60.200001 63 -12.6
59.400002 63.400002 -12.6
66.199997 53.799999 -11.4
65.800003 54.200001 -11.4
67 52.599998 -10.6
65 55.799999 -12.2
65.400002 55.799999 -12.2
65.400002 54.599998 -11.4
65.400002 55 -11.4
65 55.799999 -11.8
65 56.200001 -12.2
64.599998 57.799999 -12.6
74.599998 59 -10.6
74.199997 59.400002 -10.6
74.199997 59.799999 -10.6
74.599998 59.400002 -10.6
74.599998 59.799999 -10.6
75 59.799999 -10.6
74.199997 60.200001 -10.6
74.599998 60.200001 -10.6
75 60.200001 -10.6
75 60.599998 -10.6
75.400002 59.799999 -10.6
75.400002 60.200001 -10.6
74.599998 51.400002 -2.2
74.599998 51.799999 -2.2
74.599998 51.400002 -1.8
74.599998 51.799999 -1.8
74.599998 52.200001 -2.2
74.599998 52.599998 -2.2
74.599998 52.200001 -1.8
74.599998 52.599998 -1.8
74.599998 53 -2.2
74.599998 53.400002 -2.2
74.599998 53 -1.8
74.599998 53.400002 -1.8
75 51.799999 -1
75 52.200001 -1
75 52.599998 -1
75 53 -1
75.800003 55.799999 -1.8
76.599998 55 -0.2
70.199997 69.400002 -6.5999999
73 67 -9
73.400002 67 -9
73.400002 67 -8.6000004
74.199997 66.599998 -9
73.800003 67 -9
74.599998 66.599998 -9
75 66.599998 -9
74.199997 66.599998 -8.6000004
73.800003 67 -8.6000004
74.199997 67 -8.6000004
74.599998 66.599998 -8.6000004
75 66.599998 -8.6000004
74.599998 67 -8.1999998
75.400002 66.599998 -9
76.199997 67 -8.6000004
73.800003 67 -7
74.199997 67 -7
73.800003 67 -6.5999999
74.199997 67 -6.5999999
74.599998 66.599998 -7
74.599998 66.599998 -6.5999999
75 66.599998 -6.5999999
74.599998 67 -6.5999999
75.400002 66.599998 -6.5999999
71.800003 68.599998 -9
72.599998 67.400002 -9
72.599998 67.800003 -9
73 67.400002 -9
73 67.800003 -9
72.199997 68.199997 -9
72.599998 68.199997 -9
72.199997 68.599998 -9
72.599998 67.800003 -8.6000004
73 67.400002 -8.6000004
73.400002 67.400002 -8.6000004
73 67.800003 -8.6000004
72.599998 68.199997 -8.6000004
72.199997 68.599998 -8.6000004
73 68.199997 -8.6000004
71.800003 69 -9
71.800003 69.400002 -9
71.800003 69 -8.6000004
71.800003 69.400002 -8.6000004
72.199997 69 -8.6000004
71.800003 68.599998 -6.5999999
72.599998 67.800003 -7
72.599998 67.800003 -6.5999999
73.400002 67.400002 -7
73 67.800003 -7
73.400002 67.400002 -6.5999999
73 67.800003 -6.5999999
73.400002 67.800003 -6.5999999
72.199997 68.199997 -7
72.599998 68.199997 -7
72.199997 68.199997 -6.5999999
72.599998 68.199997 -6.5999999
72.199997 68.599998 -6.5999999
73 68.199997 -6.5999999
70.599998 69 -6.5999999
71 69 -6.5999999
71.400002 69 -6.5999999
71.800003 69 -6.5999999
76.599998 67.400002 -8.6000004
73.800003 67.400002 -6.5999999
74.199997 67.400002 -6.5999999
69.800003 73.400002 -6.5999999
70.199997 73.400002 -6.5999999
70.199997 73.800003 -7
70.199997 73.800003 -6.5999999
70.599998 73.800003 -7
70.599998 73.800003 -6.5999999
70.599998 74.199997 -6.5999999
71 74.199997 -6.5999999
71.400002 74.199997 -6.5999999
71 74.599998 -7
71.400002 74.599998 -6.5999999
71.800003 74.599998 -6.5999999
71.800003 75 -6.5999999
71.400002 76.599998 -6.5999999
70.199997 69.400002 -6.1999998
69.800003 69.400002 -5.8000002
70.199997 69.400002 -5.8000002
69.800003 69.800003 -5.8000002
70.199997 69.400002 -5.4000001
69.800003 69.800003 -5.4000001
70.199997 69.800003 -5.4000001
69.800003 70.199997 -5.4000001
70.199997 70.199997 -5.4000001
75 66.599998 -6.1999998
74.599998 67 -6.1999998
75 67 -6.1999998
75 67 -5.8000002
75.400002 66.599998 -6.1999998
75.800003 66.599998 -6.1999998
75.400002 66.599998 -5.8000002
75.800003 66.599998 -5.8000002
75.400002 67 -5.8000002
76.199997 66.599998 -6.1999998
76.599998 66.599998 -6.1999998
76.199997 66.599998 -5.8000002
76.599998 66.599998 -5.8000002
75.400002 67 -5.4000001
75.800003 67 -5.4000001
76.199997 66.599998 -5.4000001
76.599998 66.599998 -5.4000001
76.199997 67 -5.4000001
76.199997 67 -5
76.599998 67 -5
73 67.800003 -6.1999998
73.400002 67.800003 -6.1999998
72.599998 68.199997 -6.1999998
72.199997 68.599998 -6.1999998
72.599998 68.599998 -6.1999998
72.599998 68.599998 -5.8000002
73 68.199997 -6.1999998
73.400002 68.199997 -6.1999998
73 68.599998 -6.1999998
73.400002 68.199997 -5.8000002
73 68.599998 -5.8000002
73.400002 68.599998 -5.8000002
73.400002 68.599998 -5.4000001
71 69 -6.1999998
70.599998 69.400002 -6.1999998
70.599998 69.400002 -5.8000002
71 69.400002 -5.8000002
71.400002 69 -6.1999998
71.800003 69 -6.1999998
71.800003 69 -5.8000002
71.400002 69.400002 -5.8000002
71.800003 69.400002 -5.8000002
70.599998 69.400002 -5.4000001
71.400002 69.400002 -5.4000001
70.599998 69.800003 -5.4000001
71 69.800003 -5.4000001
70.599998 70.199997 -5.4000001
71 70.199997 -5.4000001
71.400002 69.800003 -5.4000001
71.800003 69.800003 -5.4000001
71.400002 70.199997 -5.4000001
71.800003 70.199997 -5.4000001
72.199997 69 -6.1999998
72.199997 69 -5.8000002
72.599998 69 -5.8000002
72.199997 69.400002 -5.8000002
72.599998 69.400002 -5.8000002
73 69 -5.8000002
73.400002 69 -5.8000002
72.199997 69.400002 -5.4000001
72.599998 69.400002 -5.4000001
73 69 -5.4000001
73.400002 69 -5.4000001
73 69.400002 -5.4000001
73.400002 69.400002 -5.4000001
73.400002 69.400002 -5
72.199997 69.800003 -5.4000001
72.599998 69.800003 -5.4000001
72.199997 70.199997 -5.4000001
72.599998 70.199997 -5.4000001
73 69.800003 -5.4000001
73 69.800003 -5
73.400002 69.800003 -5
73 70.199997 -5
73.400002 70.199997 -5
73.800003 67.400002 -6.1999998
74.199997 67.400002 -6.1999998
