# .PCD v0.7 - Point Cloud Data file format
VERSION 0.7
FIELDS x y z
SIZE 4 4 4
TYPE F F F
COUNT 1 1 1
WIDTH 155
HEIGHT 1
VIEWPOINT 0 0 0 1 0 0 0
POINTS 155
DATA ascii
23 -1.8 12.6
23.4 -2.2 12.6
25 -3 12.2
25.4 -3 12.2
23.799999 -1.8 13
23.4 -0.60000002 13
31.799999 -8.1999998 9.3999996
31.799999 -6.5999999 11
32.599998 -8.6000004 8.6000004
33 -9 9
32.599998 -8.6000004 9
32.200001 -8.6000004 9.3999996
32.599998 -8.6000004 9.3999996
33.400002 -8.1999998 11
32.599998 -7.4000001 11
33 -7.8000002 11
34.599998 -7 11.4
28.6 -4.1999998 11
27.799999 -3.4000001 11
25.799999 -3.4000001 12.2
27 -3.4000001 12.6
27.4 -3.4000001 11.4
29 -5 11
31.4 -6.1999998 11
30.200001 -5.8000002 11.4
30.200001 -5.8000002 11.8
29.799999 -5.4000001 11.8
29.799999 -5 12.2
30.6 -5.8000002 11.8
31 -5.8000002 12.2
31.4 -5.8000002 12.2
31.799999 -5.8000002 12.2
30.6 -5.4000001 12.2
30.6 -5.4000001 12.6
31.799999 -5.4000001 12.6
31.4 -5 12.6
29.4 -4.1999998 12.2
29.799999 -4.5999999 12.2
26.6 -3 12.6
29.799999 -3 12.2
32.599998 -5.8000002 11.8
33 -5.8000002 11.8
32.599998 -5.4000001 12.6
33.799999 -5 12.2
34.599998 -5 12.2
35 -3.8 12.6
35 -3.4000001 12.6
35.400002 -3.8 12.6
35 -2.2 12.6
35 -1.8 12.6
35 -1.4 12.6
35 -1 12.6
35 -0.60000002 12.2
35.799999 -2.5999999 11
35.799999 -1.8 11.4
35.400002 -3 12.2
35.400002 -2.5999999 12.2
35.799999 -1.4 11.4
26.200001 -2.5999999 13
25.799999 -2.2 13
26.200001 -2.2 13
21.799999 0.60000002 11
22.200001 2.2 11
21.799999 0.2 11.4
21 2.2 12.6
23 0.60000002 12.6
22.6 1.8 11.8
23 1.8 12.2
23 2.2 12.2
23 3.8 11
22.6 4.1999998 11
23 3.8 11.4
23.4 3.8 11.4
23 4.1999998 11.4
23 4.5999999 11.4
23 5 11.8
23 5.4000001 11.8
23 5.8000002 11.4
23 6.1999998 11.4
23 5.8000002 11.8
23.4 6.1999998 11.8
20.6 7.8000002 11
22.200001 7 11.4
22.200001 7 11.8
21.799999 7.4000001 11.8
22.200001 7.4000001 11.8
21.799999 7.8000002 11.8
22.200001 7.8000002 12.2
20.6 9 11.8
22.200001 8.1999998 12.2
22.200001 8.6000004 12.2
22.6 6.5999999 11.4
23.4 6.5999999 12.2
23.799999 6.5999999 12.2
23.4 7 12.2
23.799999 7 12.2
23.799999 7 12.6
23 7.4000001 12.2
22.6 7.8000002 12.2
23 7.8000002 12.2
23.4 7.4000001 12.2
23.799999 7.4000001 12.2
23.4 7.8000002 12.2
22.6 8.1999998 12.2
23 8.1999998 12.2
22.6 8.6000004 12.2
23 8.6000004 12.2
23.4 8.1999998 12.2
23.4 8.6000004 12.2
22.6 9 12.2
23 9 12.2
23.4 9 12.2
20.6 10.2 10.6
20.6 11 10.6
21.799999 11 10.6
21.4 9.8000002 11.8
22.200001 10.2 11.8
23 11.8 10.6
23.4 11.8 10.6
23.799999 11.8 10.6
22.6 10.2 11.8
23.4 10.2 11.8
23.799999 10.2 11.8
23.4 10.6 11.8
24.6 10.2 11.8
25 10.2 11.8
24.200001 11 11.4
24.6 11 11.4
24.6 10.6 11.8
25.4 9.8000002 12.2
24.200001 11.4 11.4
25.4 12.6 11.4
20.6 3 13
20.6 3 13.4
21 2.2 13
34.599998 0.2 11.8
34.200001 1 11.4
28.200001 12.6 10.6
28.6 12.6 10.6
25.799999 9.8000002 12.2
26.200001 9.8000002 12.2
28.6 10.2 11.4
28.200001 10.6 11.8
27 11.8 11.8
27.799999 11.8 11.4
27.4 11.4 11.8
28.200001 11.4 11.4
28.6 11.4 11.4
28.200001 11.8 11.4
29.4 11 11.4
26.200001 13.4 10.6
27 13 10.6
27.799999 13 10.6
27.4 13.4 10.6
26.200001 13 11.4
