# .PCD v0.7 - Point Cloud Data file format
VERSION 0.7
FIELDS x y z
SIZE 4 4 4
TYPE F F F
COUNT 1 1 1
WIDTH 243
HEIGHT 1
VIEWPOINT 0 0 0 1 0 0 0
POINTS 243
DATA ascii
-54.599998 25.4 7
-54.200001 24.6 6.5999999
-53 24.200001 7
-53 24.6 7.4000001
-52.599998 24.200001 7
-52.200001 24.200001 7
-51.400002 24.200001 6.5999999
-51.400002 24.6 7
-52.599998 24.6 7.4000001
-52.200001 24.6 7.4000001
-52.599998 24.200001 7.8000002
-53 25 9
-53 25.4 9.3999996
-52.599998 24.6 8.6000004
-52.200001 25 8.6000004
-52.599998 24.6 9
-52.599998 25 9
-52.599998 25 9.3999996
-52.599998 25.4 10.6
-54.599998 31.4 4.5999999
-54.200001 31.799999 4.1999998
-52.599998 32.599998 4.5999999
-51.799999 33 4.1999998
-53 34.599998 4.1999998
-51.799999 34.200001 4.1999998
-51.400002 34.599998 4.5999999
-52.599998 32.599998 5
-51.799999 32.599998 5
-55 36.200001 3.8
-55 37 3.8
-55 37 4.1999998
-55 37.400002 4.1999998
-55 37.799999 4.1999998
-54.599998 37 5
-54.200001 35.400002 3.8
-54.599998 27 7
-54.599998 27.4 7
-55 27 8.1999998
-54.599998 26.6 8.6000004
-54.200001 28.200001 7.8000002
-54.200001 27 9
-54.200001 27.4 8.1999998
-54.200001 27.799999 8.1999998
-54.200001 28.200001 8.1999998
-53.799999 28.200001 8.1999998
-53.799999 28.6 8.1999998
-53.799999 28.6 8.6000004
-54.200001 27.4 9
-54.200001 31 6.5999999
-54.200001 31 7.8000002
-53 31.4 7.8000002
-52.599998 31.799999 7.8000002
-51.799999 31.799999 7.8000002
-51.400002 31.799999 7.8000002
-53.799999 29 8.1999998
-54.200001 29.4 8.1999998
-53.799999 29.4 8.1999998
-53.799999 29 8.6000004
-54.200001 30.200001 8.1999998
-53.799999 30.200001 8.6000004
-53.799999 30.6 8.6000004
-53.400002 31 8.6000004
-52.599998 31.4 8.6000004
-52.200001 31.799999 8.6000004
-51.799999 31.799999 8.1999998
-51.799999 31.4 8.6000004
-51.799999 31.799999 8.6000004
-52.599998 31 9.3999996
-53.799999 27 10.6
-51.400002 26.200001 10.6
-51.400002 27.4 10.6
-53 26.200001 11.4
-53 26.6 11.4
-52.200001 25.799999 11.4
-52.599998 26.200001 11.4
-51.799999 26.200001 11.4
-51.400002 26.6 11.4
-51.799999 27 11.8
-52.599998 26.6 12.2
-52.200001 26.6 12.2
-52.599998 27 12.2
-52.599998 27.4 11.8
-52.200001 27.4 11.8
-51.799999 27.4 11.4
-53 29.4 10.6
-53 30.200001 10.6
-51.400002 29 10.6
-52.200001 30.6 10.6
-51.799999 31 10.6
-52.200001 29.4 11.8
-51.400002 29.4 11.4
-51.799999 29 11.8
-51.799999 29.4 11.8
-51.400002 29.4 11.8
-52.599998 29.799999 11.4
-52.200001 29.799999 11.4
-52.599998 30.200001 11.4
-52.200001 30.200001 11.4
-52.200001 29.799999 11.8
-51.400002 29.799999 11.4
-51.799999 30.200001 11.4
-51.400002 30.200001 11.4
-51.799999 29.799999 11.8
-51.400002 29.799999 11.8
-51.799999 30.200001 11.8
-52.200001 29.799999 12.2
-51.799999 29.799999 12.2
-52.200001 32.200001 6.5999999
-51.400002 35 6.5999999
-53.400002 35.799999 7.8000002
-53.799999 36.599998 7.4000001
-53.400002 36.200001 7.4000001
-53.400002 36.200001 7.8000002
-52.599998 35.400002 6.5999999
-52.200001 35.400002 6.5999999
-51.400002 35.400002 6.5999999
-52.200001 35.400002 7.8000002
-51.799999 35.400002 7.8000002
-54.200001 37.400002 6.5999999
-54.200001 37.400002 7.8000002
-53 36.599998 9.3999996
-51.799999 35.400002 8.1999998
-51.799999 35.799999 8.6000004
-51.400002 35.799999 8.6000004
-52.599998 36.200001 9
-53.400002 37.400002 8.6000004
-53.400002 37.799999 8.6000004
-53.400002 37.400002 9.3999996
-53.400002 38.200001 9.3999996
-52.599998 37.400002 11
-52.200001 37.799999 11
-51.400002 37.799999 11
-51.799999 38.200001 11
-51.400002 38.200001 11
-51.400002 37.799999 11.4
-51.799999 37.799999 12.2
-54.599998 39.400002 3.8
-54.599998 39.799999 3.8
-54.200001 39.799999 4.1999998
-53.799999 39.799999 4.1999998
-53.799999 39.799999 4.5999999
-53.400002 40.200001 3.8
-53.799999 40.200001 4.1999998
-53 40.200001 4.5999999
-52.599998 41 3.8
-52.599998 40.599998 4.1999998
-52.599998 40.599998 4.5999999
-51.400002 40.200001 4.5999999
-51.799999 40.599998 4.5999999
-52.599998 40.200001 5
-52.200001 40.200001 5.8000002
-52.200001 40.599998 5.8000002
-51.400002 40.200001 5.8000002
-51.799999 39.799999 6.5999999
-51.400002 39.799999 6.5999999
-52.200001 39.799999 7.8000002
-51.799999 39.799999 7.8000002
-53.400002 38.599998 8.6000004
-51.400002 39.400002 8.6000004
-52.599998 38.599998 9.3999996
-51 24.200001 6.5999999
-50.599998 24.6 7
-50.599998 25 7.8000002
-50.200001 25.4 7.8000002
-51 25 8.6000004
-49 31 4.5999999
-49 29.4 5.8000002
-49 29.799999 5.8000002
-49.799999 32.200001 4.5999999
-51 34.599998 4.1999998
-50.200001 35 4.5999999
-49.400002 35.400002 4.5999999
-48.200001 37.400002 3.8
-49 36.599998 5.8000002
-49.799999 25.799999 7
-49.799999 26.200001 7
-50.200001 26.6 7.8000002
-50.200001 27.799999 7.8000002
-50.200001 27.4 8.1999998
-50.599998 27.4 9
-49.799999 30.200001 7
-49.400002 29.799999 7
-49.400002 29.4 7.8000002
-49.400002 29.799999 7.8000002
-49.400002 30.200001 7.8000002
-50.599998 31.799999 7
-50.599998 31.4 7.8000002
-51 31.799999 7.8000002
-50.200001 31.4 7.8000002
-49.799999 29 8.6000004
-49.799999 29.4 8.6000004
-49.799999 29.799999 8.1999998
-49.799999 29.799999 8.6000004
-49.799999 30.200001 8.6000004
-50.200001 29.4 9.3999996
-50.200001 29.799999 9.3999996
-50.200001 30.200001 9.3999996
-49.400002 29.799999 8.1999998
-50.200001 31 8.1999998
-51 31.799999 8.1999998
-51 31.4 8.6000004
-50.200001 31.4 8.1999998
-51 31 9.3999996
-51 31.4 9.3999996
-51 27 10.6
-51 29 10.6
-50.599998 29.4 10.6
-51 29.799999 10.6
-50.599998 29.799999 10.6
-50.599998 30.200001 10.6
-51 35.400002 6.5999999
-49.799999 35.799999 6.5999999
-51 35.400002 7.8000002
-51 35.799999 7.8000002
-50.200001 35.799999 7.8000002
-49.799999 36.200001 7.8000002
-49.799999 37 7.8000002
-49.799999 38.200001 7.8000002
-49.400002 37.400002 6.5999999
-49.400002 37.400002 7.4000001
-49.400002 37.400002 7.8000002
-49.799999 36.599998 8.1999998
-49.799999 37 8.6000004
-49.799999 37.799999 8.1999998
-49.799999 38.200001 8.1999998
-50.200001 37 9.3999996
-49.799999 37 9.3999996
-50.200001 37.799999 9.3999996
-48.599998 39 3.8
-49.400002 39.799999 3.8
-49 38.599998 4.1999998
-51 40.599998 3.8
-51 40.200001 4.5999999
-49.799999 40.200001 4.1999998
-49.400002 39.400002 5
-49.400002 39.400002 5.8000002
-51 40.200001 5.8000002
-50.599998 40.200001 5.8000002
-49.799999 38.599998 7.8000002
-49.799999 38.599998 8.1999998
-51 39.400002 8.1999998
-50.599998 39.400002 8.1999998
-50.200001 38.599998 9.3999996
