# .PCD v0.7 - Point Cloud Data file format
VERSION 0.7
FIELDS x y z
SIZE 4 4 4
TYPE F F F
COUNT 1 1 1
WIDTH 270
HEIGHT 1
VIEWPOINT 0 0 0 1 0 0 0
POINTS 270
DATA ascii
-30.6 5.4000001 12.6
-34.200001 11 10.6
-33.799999 10.6 11
-33.400002 10.2 11
-35 12.2 10.6
-35 12.6 10.6
-32.599998 10.2 11.4
-34.200001 11.8 12.6
-30.6 8.1999998 11.4
-31.799999 9.3999996 11.4
-31.4 9.3999996 11.4
-31 9 11.4
-30.200001 8.1999998 11.4
-30.200001 8.1999998 12.2
-31.799999 9.8000002 11.4
-31.4 9.8000002 12.6
-35 13.8 10.6
-34.599998 14.6 11
-33.799999 15.4 10.6
-33.400002 15.4 10.6
-33 15.8 10.6
-33 15.8 11
-34.200001 13.4 12.6
-34.200001 14.2 12.2
-34.200001 14.6 11.4
-33.400002 15 12.2
-33 15.4 12.2
-32.599998 15.4 12.2
-32.599998 15.4 12.6
-32.599998 16.200001 10.6
-29.4 14.2 12.2
-31.799999 15.4 12.6
-31.4 15.4 12.6
-31.799999 15.8 12.6
-30.6 15.4 12.2
-30.6 15.4 12.6
-30.200001 15.4 12.2
-28.200001 13.8 11.8
-27 13.4 11.8
-27 13.4 12.2
-31.799999 16.200001 10.6
-31.4 16.200001 10.6
-29.4 2.5999999 13
-29 2.5999999 13
-29.4 3 13.4
-29 3 14.6
-28.6 2.5999999 13.4
-26.6 0.60000002 14.6
-26.6 2.5999999 14.6
-26.6 3 15.4
-26.200001 3 15.4
-30.6 4.5999999 13
-29.799999 3.8 13
-29.799999 3.8 13.8
-30.200001 5.4000001 13.4
-30.200001 5.8000002 13.4
-29.799999 5.8000002 13.8
-29 3.4000001 14.6
-29.4 3.8 14.6
-29.4 3.8 15.4
-30.200001 6.1999998 14.6
-27.4 3 16.6
-29 3.8 16.6
-29 4.1999998 16.6
-29 4.1999998 17.4
-29.4 5 16.6
-29 5.8000002 17.4
-29 5 17.799999
-28.6 3.4000001 16.6
-28.6 3.8 17.4
-28.200001 3.8 17.4
-27.799999 3.4000001 17.4
-27.4 3.4000001 17.4
-28.200001 3.8 17.799999
-27.4 3.8 17.799999
-28.6 4.5999999 19
-27.799999 4.1999998 19
-27 3.8 19
-27 4.1999998 19
-26.200001 4.5999999 19
-28.6 5 19
-28.6 5.8000002 19
-28.200001 6.1999998 19
-26.200001 5.4000001 19
-25.799999 5.4000001 19
-25.799999 5.8000002 19
-32.599998 10.6 13.8
-34.200001 12.6 14.2
-33.799999 12.6 14.6
-32.599998 11.4 15.8
-32.200001 11.4 15.8
-33.400002 12.2 15.8
-33.400002 12.6 15.8
-33 12.6 16.200001
-32.599998 12.6 17.4
-32.200001 12.6 17.799999
-30.200001 6.5999999 13.4
-29.799999 6.5999999 13.8
-29.4 7.8000002 13.8
-30.6 9 13.8
-30.200001 8.1999998 13.4
-29.799999 6.5999999 14.6
-29.4 7 14.6
-30.6 9.3999996 15.4
-30.200001 9 15.4
-30.200001 9.3999996 15.4
-30.6 9.8000002 15.4
-31 10.2 15.4
-30.6 10.2 15.4
-30.6 9.8000002 15.8
-30.6 11.8 15.8
-29.799999 12.6 15.8
-29.4 12.6 15.8
-26.6 12.6 13.8
-28.6 12.6 15.8
-27.799999 12.6 15.8
-27 12.6 14.6
-26.200001 11.4 15.4
-26.200001 11.8 15.4
-29.4 9 16.200001
-29 9.3999996 17.799999
-28.6 8.6000004 16.200001
-27.4 8.6000004 17.4
-25.799999 8.6000004 16.6
-27 8.6000004 17.4
-26.6 8.6000004 17.4
-27.799999 6.5999999 19
-26.6 8.1999998 17.799999
-26.200001 8.1999998 17.799999
-30.200001 10.2 16.200001
-29.799999 9.8000002 17.4
-31.799999 11.4 16.200001
-31.4 11.8 16.200001
-31 11.4 16.200001
-31.4 12.2 17.4
-31 12.6 17.4
-30.200001 11.8 16.200001
-29.799999 12.2 16.200001
-30.200001 12.6 16.200001
-29.4 12.2 16.200001
-29.4 9.8000002 17.799999
-29 9.8000002 17.799999
-29.4 10.2 18.200001
-29.799999 10.6 17.799999
-29 10.2 19
-29 10.6 19
-29.799999 11.4 17.799999
-29 11.8 18.200001
-27.4 9.8000002 17.4
-27.4 11 17.4
-27 10.6 16.6
-27 10.6 17.4
-27.799999 12.2 16.6
-27.799999 11.8 17.4
-27.4 11.8 17.4
-27.799999 12.2 17.4
-27.4 10.2 17.799999
-27.4 11 17.799999
-28.6 10.2 19
-28.200001 10.2 19
-28.200001 10.6 19
-28.6 11.8 17.799999
-27.4 11.4 17.799999
-27.799999 11.8 17.799999
-27.799999 4.1999998 19.4
-27.4 4.5999999 19.4
-27.799999 4.5999999 19.799999
-27 4.1999998 19.4
-26.6 4.5999999 19.4
-28.200001 5 19.4
-28.200001 5 19.799999
-28.200001 5.4000001 19.799999
-27.799999 5.4000001 19.799999
-27.799999 6.1999998 19.4
-27.799999 6.1999998 19.799999
-27.4 6.1999998 19.799999
-27.799999 5.4000001 20.200001
-27.799999 5.4000001 20.6
-27.4 5.4000001 20.6
-27.4 5.8000002 20.200001
-27.4 5.8000002 20.6
-26.200001 5 19.4
-26.200001 6.1999998 19.799999
-26.6 5 20.200001
-26.6 5.4000001 20.200001
-27 5 20.6
-27 5.8000002 20.200001
-27 6.1999998 20.200001
-27 6.1999998 20.6
-26.6 6.1999998 20.6
-27.799999 6.5999999 19.4
-27.4 6.5999999 20.200001
-25.799999 6.5999999 19.799999
-26.200001 7 19.799999
-26.6 7.4000001 19.799999
-25.799999 7.4000001 19.4
-26.200001 7.8000002 19.4
-26.200001 7.4000001 19.799999
-27 7 20.200001
-27 6.5999999 20.6
-26.200001 6.5999999 20.200001
-25.799999 6.5999999 20.200001
-26.200001 7 20.200001
-26.200001 6.5999999 20.6
-27 7.4000001 20.200001
-28.6 10.2 19.4
-28.6 10.6 19.4
-28.200001 10.6 19.4
-28.6 10.6 19.799999
-33.799999 14.2 13.4
-33.799999 14.2 14.2
-33.400002 14.6 13.4
-32.200001 15.4 13
-33 15 13.8
-32.599998 15 13.8
-32.599998 15 14.2
-32.200001 15.4 14.2
-33.799999 13.4 14.6
-33.799999 13.8 14.6
-32.599998 14.2 15.8
-32.599998 14.6 14.6
-32.599998 15 14.6
-32.599998 14.6 15.8
-33.400002 13.4 16.200001
-32.599998 14.2 16.200001
-32.599998 13 17.4
-32.200001 14.6 16.200001
-32.200001 13.4 17.799999
-29.799999 14.2 14.2
-31.4 15.4 13
-31.4 15 14.2
-31 15 13.8
-31 15 14.2
-30.6 15 14.2
-31.799999 15.4 14.2
-30.200001 13.4 15.8
-29.4 13 15.4
-29 13 15.4
-30.200001 14.2 15.8
-30.6 15 14.6
-31.799999 14.6 15.8
-31 14.6 15.8
-30.200001 14.6 14.6
-27.799999 13.4 13.4
-28.6 13.4 13.8
-27.799999 13.4 13.8
-26.6 13 13.4
-30.6 13.4 16.200001
-31.4 14.2 16.200001
-30.6 13.8 16.200001
-31 13 17.4
-30.200001 13 16.200001
-31.4 13 18.200001
-25 12.6 12.6
-23.799999 6.1999998 14.2
-24.6 3.8 14.6
-24.200001 5 14.6
-25.4 4.1999998 17.4
-25.4 4.5999999 17.4
-24.6 5.8000002 16.6
-25 6.1999998 17.799999
-25.4 6.1999998 19
-24.6 8.1999998 15.4
-24.200001 7 16.6
-25 7.8000002 16.6
-24.6 7 17.4
-25 7 17.799999
-24.6 7 17.799999
-25.4 7.4000001 19
-25.4 8.1999998 17.799999
