# .PCD v0.7 - Point Cloud Data file format
VERSION 0.7
FIELDS x y z
SIZE 4 4 4
TYPE F F F
COUNT 1 1 1
WIDTH 356
HEIGHT 1
VIEWPOINT 0 0 0 1 0 0 0
POINTS 356
DATA ascii
-61.400002 49 -0.2
-61.400002 49.400002 -0.2
-63.799999 54.200001 -0.60000002
-63.400002 54.599998 -0.2
-63.400002 55 -0.2
-63 55 -0.2
-63 55.400002 -0.2
-61.400002 56.599998 -0.60000002
-61.400002 57 -0.60000002
-60.599998 57.400002 -0.60000002
-60.599998 57.799999 -0.60000002
-60.599998 58.200001 -0.60000002
-58.200001 59 -0.60000002
-57 58.599998 -0.60000002
-56.599998 58.599998 -0.60000002
-56.200001 58.599998 -0.60000002
-55.799999 59 -0.60000002
-55.400002 59 -0.60000002
-53.799999 60.200001 -0.60000002
-61.400002 49.400002 0.2
-62.599998 50.599998 0.60000002
-62.599998 51 1.4
-61.799999 49.799999 0.2
-61.400002 49.799999 0.60000002
-61.799999 50.200001 1.4
-61.400002 50.200001 1.4
-61 49.400002 2.2
-61.400002 49.799999 1.8
-61.400002 50.200001 1.8
-61 49.799999 2.2
-62.200001 50.599998 1.8
-62.200001 50.599998 2.2
-61 49.799999 2.5999999
-62.200001 51 2.5999999
-61 50.599998 3
-60.599998 48.599998 0.2
-60.599998 48.599998 0.60000002
-60.200001 48.599998 1
-57.799999 48.599998 1
-60.599998 49 1.8
-59.799999 49 2.5999999
-57.799999 48.599998 1.8
-59 49 3
-58.599998 49 3
-58.200001 49 2.5999999
-57.799999 49 2.5999999
-60.599998 49.799999 3
-61.799999 51 3.8
-61.400002 50.599998 3.8
-61 50.599998 3.8
-61.799999 51 4.1999998
-61.400002 51 5
-57.799999 49 3.4000001
-60.599998 49.799999 3.8
-60.599998 50.200001 4.1999998
-60.599998 50.200001 4.5999999
-60.200001 49.799999 5
-60.200001 50.200001 5
-60.200001 50.599998 5.8000002
-59 49.799999 5
-58.200001 49.799999 5
-57.799999 50.200001 5
-57 49 1
-56.200001 50.200001 1
-57.400002 49 1.8
-57.400002 49 2.2
-57 49 2.2
-56.599998 49.799999 2.5999999
-56.599998 50.200001 2.5999999
-56.599998 50.599998 2.5999999
-56.200001 51 2.5999999
-54.599998 49.799999 2.2
-53.400002 49 1.4
-53 49.400002 1.4
-51.799999 49.799999 1.4
-51.400002 50.200001 1.4
-51.400002 50.599998 1.4
-53 49.400002 1.8
-53.400002 49.400002 2.2
-54.200001 49.799999 2.2
-53.400002 49.799999 2.5999999
-52.599998 49.799999 1.8
-52.200001 49.799999 1.8
-51.400002 50.200001 1.8
-57.400002 49.400002 3.8
-57 49.799999 3.8
-56.599998 50.200001 3.4000001
-57 50.599998 3.8
-56.599998 50.599998 3.8
-56.599998 51 3.8
-57.400002 49.799999 4.5999999
-55.400002 51 3.8
-54.599998 50.599998 4.5999999
-55 51 4.5999999
-54.599998 50.599998 5
-53.799999 49.799999 3.4000001
-53.400002 49.799999 3.4000001
-53 49.799999 3.4000001
-53.400002 50.200001 4.1999998
-54.200001 50.599998 4.5999999
-53.799999 50.599998 4.5999999
-53 50.599998 4.5999999
-51.799999 51 4.1999998
-53 50.200001 5
-54.200001 50.599998 5
-59.799999 51 6.5999999
-58.200001 51 6.5999999
-59 51 7.4000001
-58.599998 51 7.4000001
-63.799999 51.799999 0.2
-63.400002 51.400002 0.60000002
-63.799999 52.200001 0.2
-63.799999 52.599998 0.2
-62.599998 55.400002 0.2
-61.799999 55.799999 1.4
-61.400002 56.200001 0.2
-61 56.599998 0.2
-61 57 0.2
-60.599998 57 0.2
-60.599998 57 0.60000002
-60.599998 57 1
-60.599998 57.400002 1
-60.200001 57.400002 1.4
-60.599998 55.799999 3
-60.599998 56.200001 3
-60.200001 56.599998 3
-60.200001 57 3
-62.200001 53.400002 4.5999999
-62.200001 53.799999 4.5999999
-61.799999 51.400002 5
-61.400002 51.400002 5
-62.599998 53.400002 5
-62.200001 54.599998 3.8
-61.799999 55 3.8
-61.400002 55 4.1999998
-60.599998 55.799999 3.8
-60.200001 56.599998 3.8
-59.799999 57 3.8
-60.200001 56.200001 4.5999999
-59 57.400002 3.4000001
-58.599998 57.400002 3.8
-57.799999 57.400002 3.8
-58.200001 57 4.1999998
-58.200001 57.400002 4.1999998
-60.599998 54.599998 5
-60.200001 54.599998 5
-60.200001 55.400002 5
-59.799999 55.400002 5
-59.799999 55.799999 5
-60.200001 56.200001 5
-56.599998 51.400002 2.5999999
-56.200001 51.400002 2.5999999
-56.599998 51.799999 2.5999999
-56.599998 52.200001 2.5999999
-55.799999 51.400002 2.5999999
-55.799999 51.799999 2.5999999
-55.799999 52.200001 2.5999999
-57.400002 57.400002 3
-56.599998 57.400002 3
-51.400002 54.599998 2.2
-51.400002 54.599998 3
-56.599998 51.400002 3.8
-56.599998 52.200001 3.8
-56.599998 52.599998 3.8
-57 51.400002 4.5999999
-57 51.799999 4.5999999
-55.400002 51.400002 4.1999998
-55.799999 52.200001 4.1999998
-55.400002 52.200001 4.1999998
-55.400002 52.599998 4.1999998
-55.400002 52.200001 4.5999999
-56.200001 53.799999 3.8
-56.200001 54.200001 4.5999999
-55.799999 54.200001 4.5999999
-57.400002 51.799999 5.8000002
-55.400002 52.200001 5
-54.599998 51.799999 5.8000002
-55 53 5
-55.400002 54.200001 5
-55 54.200001 5
-51.400002 51.400002 4.1999998
-51.400002 51.799999 4.1999998
-51.400002 52.200001 4.1999998
-51.400002 52.599998 4.1999998
-51.400002 53 3.8
-51.400002 53.400002 3.8
-51.400002 53.799999 3.8
-51.400002 53.400002 5
-56.200001 57.400002 4.1999998
-56.599998 55 5
-56.599998 56.599998 5
-56.599998 57 5
-56.200001 57 5
-56.200001 57.400002 5
-55.400002 57.400002 5
-51.400002 55 3.4000001
-51.799999 55 3.8
-51.400002 55.400002 3.4000001
-51.400002 55.799999 3.4000001
-51.400002 55.400002 3.8
-51.400002 55.799999 3.8
-51.400002 55.799999 4.1999998
-51.400002 56.200001 4.1999998
-51.400002 56.599998 4.1999998
-53.799999 55 5
-53.400002 54.599998 5
-53 54.599998 5
-53.400002 55 5
-52.599998 55.400002 5
-60.200001 57.799999 0.2
-59.799999 58.200001 0.2
-59.400002 58.200001 0.2
-59.799999 58.200001 0.60000002
-59.400002 58.200001 0.60000002
-59.400002 58.200001 1
-59 58.200001 0.2
-59 58.200001 0.60000002
-58.599998 58.200001 0.60000002
-58.200001 58.200001 0.60000002
-59 58.599998 0.2
-58.200001 58.599998 0.2
-57.799999 58.599998 0.2
-59.400002 57.799999 2.2
-58.599998 57.799999 2.2
-58.599998 58.200001 2.2
-58.599998 57.799999 3.4000001
-57.400002 58.200001 0.60000002
-56.200001 58.599998 0.2
-56.599998 58.200001 1.4
-56.200001 58.200001 1.4
-55.799999 58.599998 0.2
-55.400002 59 0.2
-55 59 0.2
-55 59 0.60000002
-55.400002 58.599998 1.4
-55 58.599998 1.4
-54.599998 59.400002 0.60000002
-55 58.599998 2.2
-55 58.200001 3
-51.400002 59 1.4
-54.200001 59.799999 0.2
-53.799999 59.799999 0.2
-53.400002 59.799999 0.2
-53 59.799999 0.2
-54.200001 59.400002 1.4
-54.200001 59.799999 1.4
-53.799999 59.799999 1.4
-52.200001 59.400002 0.60000002
-52.599998 59.799999 0.60000002
-52.200001 59.799999 0.60000002
-51.400002 59.400002 0.2
-52.200001 59.799999 1.4
-53.799999 59 2.2
-53 59 2.2
-53.799999 59 2.5999999
-53.400002 59 2.5999999
-52.200001 59 2.5999999
-56.200001 57.799999 3.4000001
-55 58.200001 3.4000001
-55 58.200001 3.8
-55.400002 57.799999 4.1999998
-55 57.799999 5
-54.599998 58.200001 5
-54.200001 58.599998 3.8
-53.400002 59 3.4000001
-53 59 3.4000001
-53 59 3.8
-53.400002 59 4.1999998
-52.200001 58.599998 3.4000001
-52.599998 59 3.4000001
-52.200001 59 3.4000001
-52.200001 59 3.8
-53.400002 58.599998 5
-53 58.599998 5
-61 52.200001 7
-61 52.599998 7
-61.400002 53.400002 6.5999999
-61 53.400002 6.5999999
-61.400002 53 7
-61 53.400002 7
-61 53.799999 6.5999999
-61 53.400002 7.4000001
-61 53 7.8000002
-59.799999 51.400002 6.5999999
-59.799999 51.799999 6.5999999
-60.599998 52.200001 7
-60.599998 52.599998 7
-60.200001 52.599998 7
-59.400002 52.200001 6.5999999
-59.400002 51.400002 7.4000001
-59.400002 51.799999 7.4000001
-60.599998 52.599998 7.4000001
-58.200001 51.400002 6.5999999
-57.799999 51.400002 6.5999999
-58.200001 51.799999 6.5999999
-57.799999 51.799999 6.5999999
-58.599998 52.599998 6.5999999
-58.200001 52.200001 6.5999999
-59 51.799999 7.4000001
-58.599998 51.799999 7.4000001
-58.200001 51.400002 7.4000001
-60.200001 53 7
-60.599998 53.799999 6.5999999
-60.599998 53 7.4000001
-59 51.400002 8.1999998
-58.599998 51.400002 8.1999998
-59 55.400002 6.5999999
-59 55.799999 6.5999999
-58.599998 55.400002 7
-59 55.799999 7
-58.599998 55.799999 7
-58.200001 55.400002 7
-57.799999 55.400002 7
-58.599998 55.799999 7.4000001
-53.400002 51.400002 7
-53.799999 52.599998 6.5999999
-53.400002 51.799999 7.4000001
-53.799999 52.200001 7.4000001
-53.799999 52.599998 7.4000001
-53.400002 52.200001 7.4000001
-53.400002 53.400002 7
-53 53.400002 7
-52.599998 53.400002 6.5999999
-55 55.400002 6.5999999
-55 56.200001 6.5999999
-53.799999 56.200001 6.5999999
-53.799999 56.599998 6.5999999
-53.400002 56.200001 6.5999999
-53.799999 57.400002 6.5999999
-53.400002 57 7
-53.400002 57.400002 7
-53.400002 57 7.4000001
-52.599998 56.200001 6.5999999
-50.599998 51.400002 0.60000002
-50.200001 51.799999 0.2
-50.599998 53.799999 0.60000002
-50.599998 53 1
-50.599998 54.200001 1
-50.200001 53.799999 1
-51 51.799999 2.5999999
-50.599998 53.799999 1.8
-51 54.200001 1.8
-51 53.400002 3
-50.599998 54.599998 0.2
-50.200001 56.200001 0.60000002
-51 55 1.8
-50.599998 55.799999 1.8
-51 55.799999 2.2
-51 55.799999 2.5999999
-51 57 2.2
-50.599998 57 2.2
-51 57.400002 2.2
-51 53 3.4000001
-51 53.799999 3.4000001
-51 57.400002 3.4000001
-51 58.200001 3.4000001
